ply
format ascii 1.0
element vertex 1386
property float x
property float y
property float z
property uchar blue
property uchar green
property uchar red
end_header
0.030949 0.034043 0.211977 0 0 0 
0.031215 0.035521 0.186462 0 0 0 
0.030733 0.036221 0.174359 0 0 0 
0.029836 0.036466 0.170129 0 0 0 
0.028927 0.036714 0.165841 0 0 0 
0.009418 0.023907 0.387060 0 0 0 
0.009135 0.025121 0.366091 0 0 0 
0.008821 0.026464 0.342901 0 0 0 
0.008472 0.027958 0.317095 0 0 0 
0.008081 0.029630 0.288200 0 0 0 
0.007677 0.031667 0.253016 0 0 0 
0.007202 0.033954 0.213516 0 0 0 
-0.006109 0.033597 0.219687 0 0 0 
-0.006646 0.031331 0.258820 0 0 0 
-0.007110 0.029330 0.293399 0 0 0 
-0.007547 0.027673 0.322010 0 0 0 
-0.007938 0.026194 0.347562 0 0 0 
-0.008288 0.024865 0.370519 0 0 0 
-0.027788 0.036680 0.166441 0 0 0 
-0.028704 0.036432 0.170723 0 0 0 
-0.029915 0.036563 0.168459 0 0 0 
-0.029979 0.035332 0.189712 0 0 0 
-0.029738 0.033839 0.215503 0 0 0 
-0.028697 0.031567 0.254748 0 0 0 
-0.027922 0.029724 0.286591 0 0 0 
-0.027559 0.028420 0.309112 0 0 0 
-0.027410 0.027410 0.326555 0 0 0 
-0.027271 0.026469 0.342802 0 0 0 
-0.027142 0.025591 0.357970 0 0 0 
-0.027022 0.024770 0.372153 0 0 0 
-0.026911 0.024002 0.385428 0 0 0 
0.027865 0.024292 0.392746 0 0 0 
0.028001 0.025053 0.379986 0 0 0 
0.028147 0.025865 0.366377 0 0 0 
0.028305 0.026732 0.351839 0 0 0 
0.028473 0.027660 0.336293 0 0 0 
0.028654 0.028654 0.319629 0 0 0 
0.028848 0.029722 0.301723 0 0 0 
0.029436 0.031276 0.275664 0 0 0 
0.030521 0.033475 0.238808 0 0 0 
0.030842 0.034955 0.213998 0 0 0 
0.030835 0.036151 0.193935 0 0 0 
0.030841 0.037450 0.172160 0 0 0 
0.029772 0.037491 0.171480 0 0 0 
0.028864 0.037745 0.167211 0 0 0 
0.008994 0.025484 0.372765 0 0 0 
0.008678 0.026824 0.350302 0 0 0 
0.008327 0.028313 0.325347 0 0 0 
0.007935 0.029976 0.297461 0 0 0 
0.007521 0.031964 0.264131 0 0 0 
0.007046 0.034222 0.226275 0 0 0 
-0.005975 0.033861 0.232328 0 0 0 
-0.006511 0.031624 0.269830 0 0 0 
-0.006981 0.029671 0.302568 0 0 0 
-0.007418 0.028024 0.330181 0 0 0 
-0.007809 0.026550 0.354889 0 0 0 
-0.008161 0.025224 0.377127 0 0 0 
-0.027728 0.037710 0.167809 0 0 0 
-0.028642 0.037455 0.172072 0 0 0 
-0.029772 0.037490 0.171487 0 0 0 
-0.029614 0.035960 0.197136 0 0 0 
-0.029668 0.034783 0.216868 0 0 0 
-0.029360 0.033274 0.242166 0 0 0 
-0.028369 0.031115 0.278369 0 0 0 
-0.027867 0.029609 0.303611 0 0 0 
-0.027706 0.028546 0.321441 0 0 0 
-0.027556 0.027556 0.338034 0 0 0 
-0.027416 0.026632 0.353515 0 0 0 
-0.027285 0.025769 0.367992 0 0 0 
-0.027163 0.024961 0.381543 0 0 0 
0.028120 0.025236 0.389010 0 0 0 
0.028266 0.026034 0.376011 0 0 0 
0.028425 0.026888 0.362105 0 0 0 
0.028593 0.027799 0.347274 0 0 0 
0.028773 0.028773 0.331404 0 0 0 
0.028967 0.029819 0.314380 0 0 0 
0.029175 0.030943 0.296074 0 0 0 
0.030131 0.032955 0.263297 0 0 0 
0.030561 0.034504 0.238073 0 0 0 
0.030535 0.035624 0.219844 0 0 0 
0.030399 0.036689 0.202501 0 0 0 
0.030483 0.038104 0.179448 0 0 0 
0.029708 0.038511 0.172826 0 0 0 
0.028802 0.038772 0.168575 0 0 0 
0.027894 0.039051 0.164027 0 0 0 
0.008858 0.025836 0.379236 0 0 0 
0.008540 0.027173 0.357467 0 0 0 
0.008187 0.028656 0.333323 0 0 0 
0.007794 0.030309 0.306391 0 0 0 
0.007371 0.032249 0.274803 0 0 0 
0.006896 0.034479 0.238491 0 0 0 
-0.005848 0.034114 0.244430 0 0 0 
-0.006381 0.031905 0.280400 0 0 0 
-0.006857 0.030001 0.311412 0 0 0 
-0.007294 0.028364 0.338077 0 0 0 
-0.007685 0.026896 0.361983 0 0 0 
-0.008037 0.025572 0.383535 0 0 0 
-0.026751 0.039012 0.164661 0 0 0 
-0.027668 0.038735 0.169171 0 0 0 
-0.028581 0.038474 0.173416 0 0 0 
-0.029238 0.037902 0.182744 0 0 0 
-0.029218 0.036523 0.205196 0 0 0 
-0.029372 0.035449 0.222688 0 0 0 
-0.029431 0.034336 0.240813 0 0 0 
-0.029015 0.032759 0.266502 0 0 0 
-0.028183 0.030825 0.297986 0 0 0 
-0.028009 0.029706 0.316214 0 0 0 
-0.027846 0.028665 0.333165 0 0 0 
-0.027695 0.027695 0.348969 0 0 0 
-0.027553 0.026788 0.363737 0 0 0 
-0.027420 0.025938 0.377584 0 0 0 
-0.027298 0.025143 0.390529 0 0 0 
0.028381 0.026198 0.385204 0 0 0 
0.028539 0.027037 0.371910 0 0 0 
0.028708 0.027932 0.357747 0 0 0 
0.028887 0.028887 0.342615 0 0 0 
0.029080 0.029911 0.326411 0 0 0 
0.029287 0.031010 0.309016 0 0 0 
0.029726 0.032428 0.286559 0 0 0 
0.030811 0.034662 0.251182 0 0 0 
0.030268 0.035150 0.243451 0 0 0 
0.030233 0.036279 0.225575 0 0 0 
0.030089 0.037352 0.208599 0 0 0 
0.030108 0.038710 0.187092 0 0 0 
0.029645 0.039526 0.174167 0 0 0 
0.028740 0.039794 0.169934 0 0 0 
0.027833 0.040079 0.165410 0 0 0 
0.008726 0.026178 0.385515 0 0 0 
0.008406 0.027511 0.364407 0 0 0 
0.008052 0.028987 0.341034 0 0 0 
0.007658 0.030631 0.315010 0 0 0 
0.007216 0.032472 0.285858 0 0 0 
-0.005726 0.034356 0.256027 0 0 0 
-0.006250 0.032142 0.291080 0 0 0 
-0.006738 0.030319 0.319946 0 0 0 
-0.007173 0.028692 0.345713 0 0 0 
-0.007564 0.027230 0.368855 0 0 0 
-0.007917 0.025910 0.389752 0 0 0 
-0.026693 0.040039 0.166041 0 0 0 
-0.027608 0.039756 0.170527 0 0 0 
-0.028837 0.039929 0.167797 0 0 0 
-0.028879 0.038505 0.190338 0 0 0 
-0.028920 0.037183 0.211269 0 0 0 
-0.029082 0.036101 0.228394 0 0 0 
-0.029149 0.034979 0.246168 0 0 0 
-0.029670 0.034455 0.254462 0 0 0 
-0.028506 0.032070 0.292231 0 0 0 
-0.028318 0.030892 0.310872 0 0 0 
-0.028143 0.029798 0.328193 0 0 0 
-0.027980 0.028779 0.344329 0 0 0 
-0.027828 0.027828 0.359398 0 0 0 
-0.027685 0.026937 0.373502 0 0 0 
-0.027551 0.026101 0.386739 0 0 0 
0.028649 0.027180 0.381286 0 0 0 
0.028817 0.028059 0.367747 0 0 0 
0.028996 0.028996 0.353302 0 0 0 
0.029188 0.029999 0.337859 0 0 0 
0.029393 0.031073 0.321310 0 0 0 
0.029614 0.032227 0.303531 0 0 0 
0.030416 0.034103 0.274625 0 0 0 
0.030023 0.034714 0.265211 0 0 0 
0.029982 0.035784 0.248727 0 0 0 
0.029937 0.036923 0.231194 0 0 0 
0.029785 0.038001 0.214575 0 0 0 
0.029741 0.039301 0.194550 0 0 0 
0.029787 0.040819 0.171167 0 0 0 
0.028678 0.040811 0.171286 0 0 0 
0.027773 0.041103 0.166786 0 0 0 
0.008276 0.027839 0.371133 0 0 0 
0.007921 0.029308 0.348495 0 0 0 
0.007526 0.030942 0.323334 0 0 0 
0.007085 0.032768 0.295203 0 0 0 
-0.006136 0.032435 0.300333 0 0 0 
-0.006622 0.030626 0.328187 0 0 0 
-0.007056 0.029009 0.353100 0 0 0 
-0.007447 0.027554 0.375514 0 0 0 
-0.026635 0.041063 0.167415 0 0 0 
-0.027549 0.040773 0.171877 0 0 0 
-0.028736 0.040893 0.170027 0 0 0 
-0.028528 0.039094 0.197747 0 0 0 
-0.028628 0.037830 0.217220 0 0 0 
-0.028797 0.036741 0.233988 0 0 0 
-0.028873 0.035610 0.251421 0 0 0 
-0.028944 0.034546 0.267812 0 0 0 
-0.029319 0.033900 0.277760 0 0 0 
-0.028634 0.032105 0.305411 0 0 0 
-0.028446 0.030956 0.323114 0 0 0 
-0.028271 0.029886 0.339593 0 0 0 
-0.028107 0.028888 0.354971 0 0 0 
-0.027954 0.027954 0.369355 0 0 0 
-0.027811 0.027079 0.382839 0 0 0 
0.028754 0.027316 0.390260 0 0 0 
0.028921 0.028180 0.377303 0 0 0 
0.029100 0.029100 0.363501 0 0 0 
0.029291 0.030082 0.348766 0 0 0 
0.029495 0.031133 0.333002 0 0 0 
0.029713 0.032260 0.316097 0 0 0 
0.029949 0.033472 0.297922 0 0 0 
0.029796 0.034311 0.285334 0 0 0 
0.029750 0.035328 0.270084 0 0 0 
0.029700 0.036406 0.253904 0 0 0 
0.029647 0.037553 0.236704 0 0 0 
0.029487 0.038638 0.220430 0 0 0 
0.029326 0.039799 0.203014 0 0 0 
0.029597 0.041654 0.175183 0 0 0 
0.028617 0.041824 0.172633 0 0 0 
0.027712 0.042123 0.168157 0 0 0 
0.008151 0.028156 0.377654 0 0 0 
0.007794 0.029619 0.355717 0 0 0 
0.007399 0.031242 0.331372 0 0 0 
0.006959 0.033053 0.304204 0 0 0 
-0.006027 0.032718 0.309237 0 0 0 
-0.006510 0.030924 0.336139 0 0 0 
-0.006943 0.029317 0.360246 0 0 0 
-0.007334 0.027869 0.381970 0 0 0 
-0.025655 0.042387 0.164199 0 0 0 
-0.026578 0.042081 0.168784 0 0 0 
-0.027490 0.041785 0.173221 0 0 0 
-0.028310 0.041376 0.179354 0 0 0 
-0.028151 0.039620 0.205707 0 0 0 
-0.028341 0.038463 0.223052 0 0 0 
-0.028518 0.037368 0.239474 0 0 0 
-0.028601 0.036228 0.256575 0 0 0 
-0.028680 0.035156 0.272665 0 0 0 
-0.028753 0.034145 0.287829 0 0 0 
-0.028957 0.033345 0.299828 0 0 0 
-0.028755 0.032138 0.317925 0 0 0 
-0.028567 0.031016 0.334758 0 0 0 
-0.028392 0.029970 0.350456 0 0 0 
-0.028228 0.028991 0.365129 0 0 0 
-0.028075 0.028075 0.378874 0 0 0 
-0.027931 0.027215 0.391777 0 0 0 
0.029021 0.028296 0.386444 0 0 0 
0.029199 0.029199 0.373241 0 0 0 
0.029389 0.030162 0.359168 0 0 0 
0.029591 0.031191 0.344134 0 0 0 
0.029808 0.032292 0.328039 0 0 0 
0.030041 0.033474 0.310766 0 0 0 
0.029636 0.033995 0.303155 0 0 0 
0.029535 0.034905 0.289849 0 0 0 
0.029481 0.035930 0.274870 0 0 0 
0.029424 0.037017 0.258984 0 0 0 
0.029363 0.038172 0.242108 0 0 0 
0.029195 0.039262 0.226170 0 0 0 
0.029027 0.040430 0.209102 0 0 0 
0.029164 0.042126 0.184313 0 0 0 
0.028556 0.042833 0.173974 0 0 0 
0.027653 0.043138 0.169522 0 0 0 
0.026739 0.043451 0.164948 0 0 0 
0.008029 0.028466 0.383954 0 0 0 
0.007672 0.029922 0.362679 0 0 0 
0.007277 0.031535 0.339110 0 0 0 
0.006837 0.033331 0.312857 0 0 0 
-0.005922 0.032993 0.317791 0 0 0 
-0.006403 0.031214 0.343789 0 0 0 
-0.006835 0.029618 0.367127 0 0 0 
-0.007225 0.028176 0.388194 0 0 0 
-0.025599 0.043408 0.165581 0 0 0 
-0.026520 0.043095 0.170146 0 0 0 
-0.027769 0.043320 0.166864 0 0 0 
-0.027781 0.041671 0.190962 0 0 0 
-0.027864 0.040247 0.211770 0 0 0 
-0.028061 0.039084 0.228768 0 0 0 
-0.028244 0.037984 0.244854 0 0 0 
-0.028335 0.036836 0.261634 0 0 0 
-0.028421 0.035755 0.277429 0 0 0 
-0.028501 0.034736 0.292324 0 0 0 
-0.028660 0.033871 0.304967 0 0 0 
-0.029072 0.033347 0.312625 0 0 0 
-0.028870 0.032170 0.329824 0 0 0 
-0.028683 0.031073 0.345850 0 0 0 
-0.028508 0.030049 0.360821 0 0 0 
-0.028344 0.029090 0.374835 0 0 0 
-0.028191 0.028191 0.387983 0 0 0 
0.029294 0.029294 0.382556 0 0 0 
0.029483 0.030239 0.369100 0 0 0 
0.029684 0.031246 0.354747 0 0 0 
0.029898 0.032322 0.339406 0 0 0 
0.030128 0.033476 0.322969 0 0 0 
0.029687 0.033928 0.316519 0 0 0 
0.029445 0.034641 0.306364 0 0 0 
0.029192 0.035384 0.295774 0 0 0 
0.029217 0.036521 0.279569 0 0 0 
0.029152 0.037616 0.263971 0 0 0 
0.029084 0.038778 0.247409 0 0 0 
0.028909 0.039874 0.231797 0 0 0 
0.028734 0.041048 0.215067 0 0 0 
0.028650 0.042445 0.195163 0 0 0 
0.028712 0.044172 0.170555 0 0 0 
0.027593 0.044149 0.170881 0 0 0 
0.026681 0.044468 0.166327 0 0 0 
0.007911 0.028767 0.390064 0 0 0 
0.007554 0.030216 0.369424 0 0 0 
0.007159 0.031818 0.346597 0 0 0 
0.006720 0.033599 0.321213 0 0 0 
-0.005820 0.033259 0.326052 0 0 0 
-0.006299 0.031495 0.351190 0 0 0 
-0.006730 0.029909 0.373796 0 0 0 
-0.025544 0.044424 0.166957 0 0 0 
-0.026463 0.044105 0.171502 0 0 0 
-0.027695 0.044312 0.168561 0 0 0 
-0.027443 0.042221 0.198356 0 0 0 
-0.027582 0.040862 0.217711 0 0 0 
-0.027785 0.039693 0.234372 0 0 0 
-0.027976 0.038587 0.250132 0 0 0 
-0.028074 0.037432 0.266599 0 0 0 
-0.028166 0.036343 0.282108 0 0 0 
-0.028203 0.035254 0.297637 0 0 0 
-0.028474 0.034514 0.308181 0 0 0 
-0.028733 0.033804 0.318294 0 0 0 
-0.029180 0.033349 0.324784 0 0 0 
-0.028980 0.032200 0.341150 0 0 0 
-0.028793 0.031128 0.356426 0 0 0 
-0.028619 0.030125 0.370718 0 0 0 
-0.028455 0.029185 0.384118 0 0 0 
0.029385 0.029385 0.391474 0 0 0 
0.029572 0.030312 0.378595 0 0 0 
0.029772 0.031298 0.364878 0 0 0 
0.029984 0.032351 0.350238 0 0 0 
0.029960 0.033199 0.338454 0 0 0 
0.029735 0.033865 0.329193 0 0 0 
0.029501 0.034559 0.319553 0 0 0 
0.029256 0.035279 0.309533 0 0 0 
0.029001 0.036031 0.299079 0 0 0 
0.028958 0.037102 0.284186 0 0 0 
0.028886 0.038204 0.268867 0 0 0 
0.028810 0.039374 0.252611 0 0 0 
0.028628 0.040474 0.237315 0 0 0 
0.028446 0.041654 0.220913 0 0 0 
0.028254 0.042904 0.203526 0 0 0 
0.028566 0.045046 0.173748 0 0 0 
0.027534 0.045155 0.172234 0 0 0 
0.026574 0.045396 0.168879 0 0 0 
0.025557 0.045559 0.166624 0 0 0 
0.012248 0.045653 0.165315 0 0 0 
0.007439 0.030501 0.375965 0 0 0 
0.007045 0.032092 0.353844 0 0 0 
-0.005722 0.033517 0.334035 0 0 0 
-0.006199 0.031767 0.358356 0 0 0 
-0.006627 0.030192 0.380263 0 0 0 
-0.011130 0.045635 0.165567 0 0 0 
-0.023396 0.045677 0.164973 0 0 0 
-0.024422 0.045514 0.167240 0 0 0 
-0.025442 0.045352 0.169490 0 0 0 
-0.026406 0.045111 0.172853 0 0 0 
-0.027284 0.044745 0.177931 0 0 0 
-0.027085 0.042711 0.206217 0 0 0 
-0.027306 0.041465 0.223533 0 0 0 
-0.027515 0.040290 0.239867 0 0 0 
-0.027712 0.039179 0.255310 0 0 0 
-0.027817 0.038017 0.271473 0 0 0 
-0.027916 0.036921 0.286705 0 0 0 
-0.028018 0.035898 0.300932 0 0 0 
-0.028291 0.035149 0.311339 0 0 0 
-0.028553 0.034432 0.321312 0 0 0 
-0.028803 0.033741 0.330922 0 0 0 
-0.029043 0.033077 0.340154 0 0 0 
-0.029084 0.032229 0.351943 0 0 0 
-0.028899 0.031180 0.366520 0 0 0 
-0.028725 0.030198 0.380179 0 0 0 
-0.028561 0.029275 0.393003 0 0 0 
0.029658 0.030381 0.387680 0 0 0 
0.029856 0.031348 0.374558 0 0 0 
0.030066 0.032379 0.360572 0 0 0 
0.029999 0.033157 0.350017 0 0 0 
0.029781 0.033805 0.341218 0 0 0 
0.029554 0.034479 0.332069 0 0 0 
0.029316 0.035180 0.322561 0 0 0 
0.029069 0.035909 0.312661 0 0 0 
0.028812 0.036670 0.302341 0 0 0 
0.028703 0.037673 0.288721 0 0 0 
0.028625 0.038782 0.273674 0 0 0 
0.028541 0.039958 0.257715 0 0 0 
0.028352 0.041062 0.242727 0 0 0 
0.028165 0.042247 0.226643 0 0 0 
0.027966 0.043503 0.209604 0 0 0 
0.028148 0.045469 0.182920 0 0 0 
0.027562 0.046305 0.171579 0 0 0 
0.026417 0.046230 0.172597 0 0 0 
0.025399 0.046382 0.170535 0 0 0 
0.024382 0.046547 0.168292 0 0 0 
0.023357 0.046713 0.166033 0 0 0 
0.013291 0.046519 0.168672 0 0 0 
0.012105 0.046220 0.172723 0 0 0 
0.007328 0.030777 0.382311 0 0 0 
0.006934 0.032357 0.360863 0 0 0 
-0.006101 0.032031 0.365295 0 0 0 
-0.006528 0.030466 0.386536 0 0 0 
-0.011001 0.046203 0.172960 0 0 0 
-0.012179 0.046501 0.168921 0 0 0 
-0.022223 0.046668 0.166650 0 0 0 
-0.023251 0.046502 0.168904 0 0 0 
-0.024272 0.046337 0.171143 0 0 0 
-0.025291 0.046183 0.173235 0 0 0 
-0.026384 0.046172 0.173382 0 0 0 
-0.026885 0.045166 0.187026 0 0 0 
-0.026809 0.043306 0.212269 0 0 0 
-0.027036 0.042056 0.229239 0 0 0 
-0.027251 0.040876 0.245257 0 0 0 
-0.027454 0.039761 0.260392 0 0 0 
-0.027565 0.038591 0.276259 0 0 0 
-0.027670 0.037489 0.291220 0 0 0 
-0.027835 0.036534 0.304184 0 0 0 
-0.028110 0.035777 0.314457 0 0 0 
-0.028374 0.035051 0.324314 0 0 0 
-0.028627 0.034353 0.333785 0 0 0 
-0.028869 0.033681 0.342905 0 0 0 
-0.029102 0.033034 0.351675 0 0 0 
-0.029184 0.032256 0.362239 0 0 0 
-0.028999 0.031230 0.376165 0 0 0 
-0.028826 0.030267 0.389232 0 0 0 
0.029936 0.031396 0.383816 0 0 0 
0.030144 0.032405 0.370442 0 0 0 
0.030036 0.033116 0.361015 0 0 0 
0.029824 0.033748 0.352645 0 0 0 
0.029603 0.034404 0.343950 0 0 0 
0.029374 0.035086 0.334911 0 0 0 
0.029134 0.035794 0.325525 0 0 0 
0.028885 0.036531 0.315749 0 0 0 
0.028625 0.037300 0.305561 0 0 0 
0.028453 0.038234 0.293177 0 0 0 
0.028368 0.039349 0.278395 0 0 0 
0.028278 0.040531 0.262726 0 0 0 
0.028082 0.041639 0.248036 0 0 0 
0.027889 0.042829 0.232261 0 0 0 
0.027684 0.044089 0.215559 0 0 0 
0.027741 0.045880 0.191826 0 0 0 
0.027016 0.046467 0.184041 0 0 0 
0.026416 0.047329 0.172620 0 0 0 
0.025239 0.047186 0.174515 0 0 0 
0.024229 0.047357 0.172246 0 0 0 
0.023212 0.047529 0.169961 0 0 0 
0.022187 0.047703 0.167658 0 0 0 
0.021155 0.047878 0.165339 0 0 0 
0.015524 0.047682 0.167932 0 0 0 
0.014323 0.047376 0.171993 0 0 0 
0.013246 0.047465 0.170807 0 0 0 
0.011868 0.046392 0.185030 0 0 0 
0.007220 0.031045 0.388469 0 0 0 
0.006826 0.032615 0.367664 0 0 0 
-0.006007 0.032286 0.372021 0 0 0 
-0.009539 0.045575 0.195872 0 0 0 
-0.010775 0.046331 0.185841 0 0 0 
-0.012125 0.047399 0.171690 0 0 0 
-0.013216 0.047357 0.172240 0 0 0 
-0.014410 0.047663 0.168191 0 0 0 
-0.020021 0.047829 0.165994 0 0 0 
-0.021056 0.047654 0.168310 0 0 0 
-0.022084 0.047480 0.170609 0 0 0 
-0.023104 0.047308 0.172891 0 0 0 
-0.024224 0.047346 0.172387 0 0 0 
-0.025180 0.047075 0.175981 0 0 0 
-0.025797 0.046219 0.187330 0 0 0 
-0.026497 0.045575 0.195860 0 0 0 
-0.026538 0.043890 0.218200 0 0 0 
-0.026771 0.042635 0.234834 0 0 0 
-0.026991 0.041450 0.250543 0 0 0 
-0.027200 0.040331 0.265380 0 0 0 
-0.027318 0.039156 0.280960 0 0 0 
-0.027366 0.037960 0.296816 0 0 0 
-0.027655 0.037162 0.307394 0 0 0 
-0.027932 0.036396 0.317536 0 0 0 
-0.028198 0.035662 0.327269 0 0 0 
-0.028454 0.034957 0.336613 0 0 0 
-0.028697 0.034277 0.345624 0 0 0 
-0.028932 0.033624 0.354291 0 0 0 
-0.029158 0.032994 0.362634 0 0 0 
-0.029279 0.032282 0.372074 0 0 0 
-0.029095 0.031278 0.385390 0 0 0 
0.030013 0.031442 0.392680 0 0 0 
0.030219 0.032430 0.379879 0 0 0 
0.030071 0.033078 0.371488 0 0 0 
0.029865 0.033693 0.363517 0 0 0 
0.029650 0.034332 0.355243 0 0 0 
0.029428 0.034995 0.346650 0 0 0 
0.029196 0.035684 0.337728 0 0 0 
0.028955 0.036400 0.328453 0 0 0 
0.028703 0.037145 0.318798 0 0 0 
0.028441 0.037922 0.308740 0 0 0 
0.028168 0.038731 0.298252 0 0 0 
0.028116 0.039906 0.283032 0 0 0 
0.028019 0.041094 0.267644 0 0 0 
0.027817 0.042206 0.253244 0 0 0 
0.027618 0.043400 0.237770 0 0 0 
0.027408 0.044664 0.221395 0 0 0 
0.026784 0.045327 0.212810 0 0 0 
0.026014 0.045784 0.206885 0 0 0 
0.025544 0.046831 0.193326 0 0 0 
0.024927 0.047686 0.182250 0 0 0 
0.024078 0.048156 0.176158 0 0 0 
0.023057 0.048310 0.174167 0 0 0 
0.022039 0.048485 0.171895 0 0 0 
0.021013 0.048662 0.169607 0 0 0 
0.019980 0.048840 0.167302 0 0 0 
0.017790 0.048923 0.166226 0 0 0 
0.016546 0.048534 0.171261 0 0 0 
0.015390 0.048367 0.173425 0 0 0 
0.014034 0.047500 0.184657 0 0 0 
0.012743 0.046726 0.194686 0 0 0 
0.011475 0.045900 0.205381 0 0 0 
0.010295 0.045296 0.213211 0 0 0 
0.006722 0.032864 0.374258 0 0 0 
-0.005915 0.032534 0.378541 0 0 0 
-0.009255 0.045246 0.213859 0 0 0 
-0.010420 0.045846 0.206086 0 0 0 
-0.011666 0.046662 0.195510 0 0 0 
-0.012938 0.047438 0.185467 0 0 0 
-0.014279 0.048329 0.173923 0 0 0 
-0.015436 0.048514 0.171517 0 0 0 
-0.016671 0.048903 0.166489 0 0 0 
-0.017807 0.048968 0.165643 0 0 0 
-0.018850 0.048789 0.167961 0 0 0 
-0.019886 0.048611 0.170263 0 0 0 
-0.020915 0.048435 0.172547 0 0 0 
-0.022057 0.048524 0.171389 0 0 0 
-0.023058 0.048312 0.174135 0 0 0 
-0.023716 0.047431 0.185550 0 0 0 
-0.024445 0.046765 0.194187 0 0 0 
-0.024893 0.045637 0.208793 0 0 0 
-0.025671 0.045181 0.214696 0 0 0 
-0.026273 0.044462 0.224012 0 0 0 
-0.026511 0.043203 0.240320 0 0 0 
-0.026736 0.042014 0.255730 0 0 0 
-0.026951 0.040891 0.270276 0 0 0 
-0.027075 0.039710 0.285576 0 0 0 
-0.027186 0.038587 0.300121 0 0 0 
-0.027477 0.037781 0.310562 0 0 0 
-0.027756 0.037008 0.320576 0 0 0 
-0.028024 0.036266 0.330188 0 0 0 
-0.028281 0.035553 0.339422 0 0 0 
-0.028528 0.034867 0.348311 0 0 0 
-0.028764 0.034206 0.356877 0 0 0 
-0.028992 0.033569 0.365124 0 0 0 
-0.029211 0.032956 0.373070 0 0 0 
-0.029370 0.032307 0.381476 0 0 0 
0.030291 0.032455 0.388910 0 0 0 
0.030105 0.033042 0.381473 0 0 0 
0.029904 0.033642 0.373872 0 0 0 
0.029695 0.034264 0.365990 0 0 0 
0.029479 0.034910 0.357811 0 0 0 
0.029255 0.035580 0.349318 0 0 0 
0.029021 0.036276 0.340508 0 0 0 
0.028777 0.036999 0.331345 0 0 0 
0.028524 0.037752 0.321809 0 0 0 
0.028260 0.038536 0.311878 0 0 0 
0.027985 0.039353 0.301525 0 0 0 
0.027868 0.040454 0.287588 0 0 0 
0.027765 0.041647 0.272474 0 0 0 
0.027557 0.042761 0.258355 0 0 0 
0.027353 0.043960 0.243173 0 0 0 
0.027006 0.045011 0.229864 0 0 0 
0.026261 0.045452 0.224280 0 0 0 
0.025501 0.045901 0.218585 0 0 0 
0.024725 0.046360 0.212776 0 0 0 
0.023934 0.046828 0.206850 0 0 0 
0.023545 0.048160 0.189969 0 0 0 
0.022826 0.048912 0.180449 0 0 0 
0.021925 0.049330 0.175150 0 0 0 
0.020873 0.049435 0.173818 0 0 0 
0.019846 0.049615 0.171544 0 0 0 
0.018795 0.049752 0.169808 0 0 0 
0.017627 0.049577 0.172021 0 0 0 
0.016318 0.048955 0.179907 0 0 0 
0.014876 0.047816 0.194325 0 0 0 
0.013568 0.046966 0.205092 0 0 0 
0.012360 0.046351 0.212889 0 0 0 
0.011187 0.045767 0.220290 0 0 0 
0.010973 0.049380 0.174526 0 0 0 
0.006621 0.033106 0.380654 0 0 0 
-0.005826 0.032774 0.384865 0 0 0 
-0.010159 0.045716 0.220926 0 0 0 
-0.011317 0.046296 0.213583 0 0 0 
-0.012510 0.046911 0.205798 0 0 0 
-0.013795 0.047751 0.195149 0 0 0 
-0.015208 0.048883 0.180810 0 0 0 
-0.016511 0.049533 0.172583 0 0 0 
-0.017682 0.049731 0.170072 0 0 0 
-0.018724 0.049563 0.172203 0 0 0 
-0.019753 0.049384 0.174474 0 0 0 
-0.020924 0.049557 0.172278 0 0 0 
-0.021738 0.048911 0.180459 0 0 0 
-0.022321 0.047831 0.194136 0 0 0 
-0.022819 0.046676 0.208770 0 0 0 
-0.023618 0.046210 0.214674 0 0 0 
-0.024402 0.045753 0.220461 0 0 0 
-0.025170 0.045305 0.226134 0 0 0 
-0.026013 0.045023 0.229710 0 0 0 
-0.026256 0.043760 0.245701 0 0 0 
-0.026486 0.042567 0.260820 0 0 0 
-0.026706 0.041441 0.275084 0 0 0 
-0.026836 0.040254 0.290111 0 0 0 
-0.027009 0.039207 0.303384 0 0 0 
-0.027302 0.038393 0.313690 0 0 0 
-0.027582 0.037612 0.323578 0 0 0 
-0.027852 0.036863 0.333071 0 0 0 
-0.028111 0.036143 0.342193 0 0 0 
-0.028360 0.035450 0.350966 0 0 0 
-0.028598 0.034782 0.359432 0 0 0 
-0.028828 0.034138 0.367585 0 0 0 
-0.029049 0.033518 0.375442 0 0 0 
-0.029262 0.032920 0.383019 0 0 0 
-0.029457 0.032331 0.390473 0 0 0 
0.030137 0.033007 0.391003 0 0 0 
0.029941 0.033592 0.383748 0 0 0 
0.029738 0.034199 0.376230 0 0 0 
0.029528 0.034828 0.368436 0 0 0 
0.029310 0.035481 0.360349 0 0 0 
0.029083 0.036157 0.351962 0 0 0 
0.028847 0.036860 0.343254 0 0 0 
0.028602 0.037591 0.334202 0 0 0 
0.028346 0.038351 0.324783 0 0 0 
0.028080 0.039142 0.314976 0 0 0 
0.027803 0.039967 0.304755 0 0 0 
0.027625 0.040991 0.292064 0 0 0 
0.027515 0.042190 0.277216 0 0 0 
0.027302 0.043307 0.263372 0 0 0 
0.027093 0.044509 0.248473 0 0 0 
0.026494 0.045138 0.240684 0 0 0 
0.025758 0.045571 0.235311 0 0 0 
0.025007 0.046013 0.229833 0 0 0 
0.024242 0.046464 0.224248 0 0 0 
0.023462 0.046924 0.218552 0 0 0 
0.022666 0.047393 0.212743 0 0 0 
0.021854 0.047871 0.206816 0 0 0 
0.021407 0.049237 0.189892 0 0 0 
0.020795 0.050347 0.176139 0 0 0 
0.019764 0.050508 0.174140 0 0 0 
0.018574 0.050260 0.177215 0 0 0 
0.017012 0.048908 0.193963 0 0 0 
0.015663 0.048033 0.204803 0 0 0 
0.014427 0.047404 0.212607 0 0 0 
0.013223 0.046790 0.220210 0 0 0 
0.012059 0.046226 0.227199 0 0 0 
0.010884 0.045513 0.236034 0 0 0 
0.010110 0.046507 0.223723 0 0 0 
-0.009307 0.047569 0.210558 0 0 0 
-0.009883 0.045464 0.236648 0 0 0 
-0.011042 0.046175 0.227826 0 0 0 
-0.012192 0.046735 0.220892 0 0 0 
-0.013381 0.047348 0.213301 0 0 0 
-0.014602 0.047976 0.205509 0 0 0 
-0.015927 0.048842 0.194787 0 0 0 
-0.017456 0.050187 0.178113 0 0 0 
-0.018611 0.050358 0.175997 0 0 0 
-0.019566 0.050002 0.180406 0 0 0 
-0.020197 0.048898 0.194085 0 0 0 
-0.020746 0.047715 0.208747 0 0 0 
-0.021565 0.047239 0.214651 0 0 0 
-0.022369 0.046772 0.220439 0 0 0 
-0.023157 0.046314 0.226113 0 0 0 
-0.023929 0.045865 0.231677 0 0 0 
-0.024687 0.045424 0.237134 0 0 0 
-0.025430 0.044992 0.242487 0 0 0 
-0.026006 0.044307 0.250979 0 0 0 
-0.026241 0.043110 0.265816 0 0 0 
-0.026466 0.041981 0.279805 0 0 0 
-0.026527 0.040674 0.295992 0 0 0 
-0.026834 0.039818 0.306604 0 0 0 
-0.027128 0.038997 0.316779 0 0 0 
-0.027411 0.038209 0.326542 0 0 0 
-0.027682 0.037452 0.335919 0 0 0 
-0.027943 0.036725 0.344931 0 0 0 
-0.028194 0.036026 0.353590 0 0 0 
-0.028434 0.035351 0.361959 0 0 0 
-0.028665 0.034700 0.370019 0 0 0 
-0.028888 0.034073 0.377789 0 0 0 
-0.029103 0.033468 0.385283 0 0 0 
-0.029310 0.032885 0.392515 0 0 0 
0.029977 0.033545 0.393176 0 0 0 
0.029779 0.034137 0.385998 0 0 0 
0.029575 0.034750 0.378562 0 0 0 
0.029363 0.035386 0.370854 0 0 0 
0.029143 0.036045 0.362859 0 0 0 
0.028914 0.036728 0.354573 0 0 0 
0.028676 0.037438 0.345968 0 0 0 
0.028428 0.038175 0.337024 0 0 0 
0.028171 0.038942 0.327720 0 0 0 
0.027903 0.039741 0.318035 0 0 0 
0.027624 0.040573 0.307944 0 0 0 
0.027333 0.041441 0.297422 0 0 0 
0.027270 0.042723 0.281874 0 0 0 
0.027052 0.043842 0.268296 0 0 0 
0.026714 0.044841 0.256179 0 0 0 
0.026000 0.045260 0.251101 0 0 0 
0.025274 0.045687 0.245926 0 0 0 
0.024533 0.046122 0.240654 0 0 0 
0.023778 0.046565 0.235280 0 0 0 
0.023008 0.047016 0.229801 0 0 0 
0.022223 0.047477 0.224216 0 0 0 
0.021423 0.047947 0.218519 0 0 0 
0.020607 0.048426 0.212709 0 0 0 
0.019774 0.048914 0.206782 0 0 0 
0.019269 0.050313 0.189816 0 0 0 
0.017760 0.049102 0.204513 0 0 0 
0.016496 0.048457 0.212325 0 0 0 
0.015265 0.047830 0.219935 0 0 0 
0.014065 0.047218 0.227350 0 0 0 
0.012910 0.046675 0.233946 0 0 0 
0.011735 0.045963 0.242576 0 0 0 
0.010596 0.045273 0.250946 0 0 0 
0.009677 0.045484 0.248388 0 0 0 
-0.008996 0.046977 0.230273 0 0 0 
-0.009622 0.045224 0.251538 0 0 0 
-0.010746 0.045913 0.243180 0 0 0 
-0.011904 0.046624 0.234562 0 0 0 
-0.013045 0.047163 0.228022 0 0 0 
-0.014230 0.047774 0.220618 0 0 0 
-0.015447 0.048400 0.213020 0 0 0 
-0.016696 0.049043 0.205220 0 0 0 
-0.018073 0.049966 0.194034 0 0 0 
-0.018672 0.048754 0.208725 0 0 0 
-0.019512 0.048267 0.214629 0 0 0 
-0.020336 0.047790 0.220417 0 0 0 
-0.021144 0.047322 0.226091 0 0 0 
-0.021936 0.046863 0.231656 0 0 0 
-0.022713 0.046413 0.237113 0 0 0 
-0.023475 0.045972 0.242467 0 0 0 
-0.024223 0.045539 0.247720 0 0 0 
-0.024957 0.045114 0.252875 0 0 0 
-0.025761 0.044843 0.256158 0 0 0 
-0.026000 0.043642 0.270720 0 0 0 
-0.026230 0.042511 0.284442 0 0 0 
-0.026352 0.041285 0.299308 0 0 0 
-0.026661 0.040421 0.309783 0 0 0 
-0.026957 0.039593 0.319828 0 0 0 
-0.027241 0.038798 0.329470 0 0 0 
-0.027514 0.038034 0.338732 0 0 0 
-0.027777 0.037300 0.347636 0 0 0 
-0.028029 0.036594 0.356204 0 0 0 
-0.028272 0.035913 0.364456 0 0 0 
-0.028505 0.035256 0.372426 0 0 0 
-0.028729 0.034623 0.380110 0 0 0 
-0.028946 0.034011 0.387522 0 0 0 
-0.029155 0.033421 0.394677 0 0 0 
0.029818 0.034078 0.395325 0 0 0 
0.029619 0.034676 0.388224 0 0 0 
0.029413 0.035295 0.380868 0 0 0 
0.029199 0.035937 0.373245 0 0 0 
0.028977 0.036603 0.365340 0 0 0 
0.028746 0.037292 0.357154 0 0 0 
0.028506 0.038008 0.348650 0 0 0 
0.028257 0.038753 0.339812 0 0 0 
0.027998 0.039527 0.330621 0 0 0 
0.027728 0.040332 0.321056 0 0 0 
0.027447 0.041171 0.311092 0 0 0 
0.027155 0.042046 0.300705 0 0 0 
0.027029 0.043246 0.286450 0 0 0 
0.026806 0.044368 0.273131 0 0 0 
0.026230 0.044966 0.266032 0 0 0 
0.025525 0.045378 0.261136 0 0 0 
0.024807 0.045798 0.256151 0 0 0 
0.024076 0.046226 0.251072 0 0 0 
0.023331 0.046661 0.245897 0 0 0 
0.022571 0.047105 0.240623 0 0 0 
0.021797 0.047558 0.235249 0 0 0 
0.021008 0.048019 0.229770 0 0 0 
0.020194 0.048465 0.224483 0 0 0 
0.019381 0.048962 0.218580 0 0 0 
0.018567 0.049512 0.212043 0 0 0 
0.017308 0.048871 0.219660 0 0 0 
0.016082 0.048246 0.227082 0 0 0 
0.014886 0.047636 0.234317 0 0 0 
0.013721 0.047042 0.241371 0 0 0 
0.012567 0.046403 0.248967 0 0 0 
0.011428 0.045714 0.257148 0 0 0 
0.010323 0.045045 0.265090 0 0 0 
0.008725 0.041880 0.302674 0 0 0 
-0.008110 0.043251 0.286391 0 0 0 
-0.009374 0.044997 0.265662 0 0 0 
-0.010465 0.045665 0.257731 0 0 0 
-0.011588 0.046353 0.249562 0 0 0 
-0.012726 0.046988 0.242021 0 0 0 
-0.013878 0.047581 0.234978 0 0 0 
-0.015059 0.048189 0.227754 0 0 0 
-0.016271 0.048813 0.220343 0 0 0 
-0.017515 0.049454 0.212738 0 0 0 
-0.018302 0.048806 0.220427 0 0 0 
-0.019123 0.048311 0.226312 0 0 0 
-0.019943 0.047862 0.231635 0 0 0 
-0.020739 0.047403 0.237093 0 0 0 
-0.021520 0.046952 0.242447 0 0 0 
-0.022286 0.046509 0.247700 0 0 0 
-0.023038 0.046075 0.252855 0 0 0 
-0.023776 0.045649 0.257915 0 0 0 
-0.024500 0.045231 0.262882 0 0 0 
-0.025211 0.044820 0.267759 0 0 0 
-0.025763 0.044166 0.275534 0 0 0 
-0.025998 0.043032 0.288997 0 0 0 
-0.026180 0.041888 0.302581 0 0 0 
-0.026490 0.041017 0.312921 0 0 0 
-0.026788 0.040182 0.322839 0 0 0 
-0.027074 0.039380 0.332361 0 0 0 
-0.027348 0.038610 0.341511 0 0 0 
-0.027613 0.037869 0.350310 0 0 0 
-0.027867 0.037156 0.358777 0 0 0 
-0.028112 0.036469 0.366925 0 0 0 
-0.028346 0.035806 0.374806 0 0 0 
-0.028572 0.035166 0.382405 0 0 0 
-0.028790 0.034548 0.389737 0 0 0 
0.029461 0.035209 0.390426 0 0 0 
0.029253 0.035835 0.383150 0 0 0 
0.029037 0.036483 0.375610 0 0 0 
0.028813 0.037154 0.367803 0 0 0 
0.028580 0.037850 0.359706 0 0 0 
0.028339 0.038572 0.351300 0 0 0 
0.028088 0.039323 0.342567 0 0 0 
0.027827 0.040104 0.333487 0 0 0 
0.027556 0.040916 0.324039 0 0 0 
0.027273 0.041762 0.314200 0 0 0 
0.026978 0.042643 0.303946 0 0 0 
0.026792 0.043761 0.290945 0 0 0 
0.026447 0.044687 0.280172 0 0 0 
0.025763 0.045086 0.275534 0 0 0 
0.025067 0.045492 0.270812 0 0 0 
0.024358 0.045905 0.266004 0 0 0 
0.023636 0.046326 0.261108 0 0 0 
0.022887 0.046728 0.256427 0 0 0 
0.022146 0.047181 0.251163 0 0 0 
0.021390 0.047642 0.245797 0 0 0 
0.020620 0.048112 0.240324 0 0 0 
0.019834 0.048592 0.234743 0 0 0 
0.019032 0.049082 0.229049 0 0 0 
0.018101 0.049274 0.226814 0 0 0 
0.016879 0.048651 0.234056 0 0 0 
0.015688 0.048044 0.241116 0 0 0 
0.014526 0.047452 0.248003 0 0 0 
0.013381 0.046833 0.255213 0 0 0 
0.012243 0.046145 0.263212 0 0 0 
0.011137 0.045477 0.270978 0 0 0 
0.010064 0.044829 0.278524 0 0 0 
-0.007390 0.040237 0.331941 0 0 0 
-0.009139 0.044781 0.279076 0 0 0 
-0.010198 0.045429 0.271541 0 0 0 
-0.011289 0.046096 0.263786 0 0 0 
-0.012412 0.046782 0.255799 0 0 0 
-0.013542 0.047397 0.248643 0 0 0 
-0.014690 0.047988 0.241767 0 0 0 
-0.015868 0.048595 0.234717 0 0 0 
-0.017075 0.049216 0.227486 0 0 0 
-0.017973 0.048926 0.230858 0 0 0 
-0.018782 0.048438 0.236533 0 0 0 
-0.019576 0.047960 0.242097 0 0 0 
-0.020353 0.047491 0.247551 0 0 0 
-0.021116 0.047031 0.252900 0 0 0 
-0.021864 0.046580 0.258147 0 0 0 
-0.022616 0.046175 0.262863 0 0 0 
-0.023345 0.045756 0.267741 0 0 0 
-0.024060 0.045344 0.272530 0 0 0 
-0.024763 0.044940 0.277234 0 0 0 
-0.025531 0.044679 0.280262 0 0 0 
-0.025685 0.043398 0.295165 0 0 0 
-0.026010 0.042483 0.305812 0 0 0 
-0.026322 0.041605 0.316019 0 0 0 
-0.026621 0.040763 0.325813 0 0 0 
-0.026908 0.039955 0.335218 0 0 0 
-0.027185 0.039178 0.344257 0 0 0 
-0.027450 0.038430 0.352952 0 0 0 
-0.027706 0.037711 0.361321 0 0 0 
-0.027952 0.037018 0.369382 0 0 0 
-0.028189 0.036349 0.377160 0 0 0 
-0.028417 0.035703 0.384675 0 0 0 
-0.028637 0.035080 0.391929 0 0 0 
0.029304 0.035736 0.392605 0 0 0 
0.029094 0.036368 0.385406 0 0 0 
0.028877 0.037022 0.377949 0 0 0 
0.028651 0.037699 0.370234 0 0 0 
0.028417 0.038401 0.362228 0 0 0 
0.028174 0.039130 0.353919 0 0 0 
0.027921 0.039887 0.345289 0 0 0 
0.027658 0.040674 0.336317 0 0 0 
0.027385 0.041493 0.326985 0 0 0 
0.027101 0.042345 0.317269 0 0 0 
0.026804 0.043233 0.307146 0 0 0 
0.026495 0.044159 0.296589 0 0 0 
0.025989 0.044809 0.289182 0 0 0 
0.025298 0.045175 0.285010 0 0 0 
0.024618 0.045589 0.280288 0 0 0 
0.023926 0.046011 0.275479 0 0 0 
0.023220 0.046440 0.270579 0 0 0 
0.022502 0.046878 0.265588 0 0 0 
0.021769 0.047324 0.260501 0 0 0 
0.021023 0.047779 0.255316 0 0 0 
0.020262 0.048243 0.250031 0 0 0 
0.019486 0.048716 0.244643 0 0 0 
0.018695 0.049198 0.239147 0 0 0 
0.017657 0.049047 0.240861 0 0 0 
0.016470 0.048443 0.247754 0 0 0 
0.015313 0.047853 0.254479 0 0 0 
0.014176 0.047253 0.261320 0 0 0 
0.013039 0.046567 0.269141 0 0 0 
0.011934 0.045900 0.276738 0 0 0 
0.010861 0.045253 0.284121 0 0 0 
0.011033 0.050150 0.228293 0 0 0 
-0.010359 0.051794 0.209543 0 0 0 
-0.009945 0.045205 0.284666 0 0 0 
-0.011004 0.045851 0.277293 0 0 0 
-0.012094 0.046517 0.269707 0 0 0 
-0.013217 0.047202 0.261897 0 0 0 
-0.014339 0.047797 0.255109 0 0 0 
-0.015484 0.048386 0.248394 0 0 0 
-0.016657 0.048990 0.241512 0 0 0 
-0.017655 0.049042 0.240920 0 0 0 
-0.018453 0.048562 0.246397 0 0 0 
-0.019236 0.048090 0.251768 0 0 0 
-0.020004 0.047628 0.257036 0 0 0 
-0.020757 0.047175 0.262204 0 0 0 
-0.021496 0.046730 0.267275 0 0 0 
-0.022221 0.046294 0.272250 0 0 0 
-0.022933 0.045865 0.277134 0 0 0 
-0.023631 0.045445 0.281928 0 0 0 
-0.024317 0.045032 0.286635 0 0 0 
-0.025011 0.044663 0.290839 0 0 0 
-0.025515 0.043992 0.298492 0 0 0 
-0.025842 0.043070 0.309001 0 0 0 
-0.026155 0.042186 0.319078 0 0 0 
-0.026456 0.041338 0.328749 0 0 0 
-0.026745 0.040523 0.338040 0 0 0 
-0.027023 0.039739 0.346971 0 0 0 
-0.027290 0.038986 0.355563 0 0 0 
-0.027547 0.038260 0.363835 0 0 0 
-0.027795 0.037561 0.371806 0 0 0 
-0.028034 0.036887 0.379487 0 0 0 
-0.028263 0.036235 0.386921 0 0 0 
-0.028484 0.035606 0.394097 0 0 0 
0.029149 0.036258 0.394760 0 0 0 
0.028938 0.036896 0.387639 0 0 0 
0.028718 0.037555 0.380270 0 0 0 
0.028491 0.038238 0.372637 0 0 0 
0.028255 0.038946 0.364722 0 0 0 
0.028010 0.039681 0.356508 0 0 0 
0.027756 0.040444 0.347978 0 0 0 
0.027491 0.041237 0.339114 0 0 0 
0.027217 0.042062 0.329895 0 0 0 
0.026931 0.042921 0.320299 0 0 0 
0.026633 0.043815 0.310304 0 0 0 
0.026206 0.044551 0.302082 0 0 0 
0.025549 0.044931 0.297831 0 0 0 
0.024893 0.045342 0.293240 0 0 0 
0.024221 0.045751 0.288669 0 0 0 
0.023536 0.046167 0.284014 0 0 0 
0.022839 0.046591 0.279273 0 0 0 
0.022129 0.047023 0.274445 0 0 0 
0.021405 0.047463 0.269526 0 0 0 
0.020668 0.047912 0.264515 0 0 0 
0.019917 0.048369 0.259407 0 0 0 
0.019151 0.048835 0.254202 0 0 0 
0.018417 0.049434 0.247505 0 0 0 
0.017235 0.048832 0.254236 0 0 0 
0.016081 0.048244 0.260805 0 0 0 
0.014953 0.047663 0.267291 0 0 0 
0.013817 0.046979 0.274941 0 0 0 
0.012714 0.046314 0.282374 0 0 0 
0.011641 0.045667 0.289600 0 0 0 
0.010598 0.045040 0.296609 0 0 0 
0.009909 0.045944 0.286510 0 0 0 
-0.009305 0.047456 0.269604 0 0 0 
-0.009704 0.044993 0.297139 0 0 0 
-0.010734 0.045619 0.290137 0 0 0 
-0.011793 0.046265 0.282921 0 0 0 
-0.012882 0.046929 0.275499 0 0 0 
-0.014004 0.047613 0.267859 0 0 0 
-0.015118 0.048188 0.261426 0 0 0 
-0.016258 0.048775 0.254867 0 0 0 
-0.017348 0.049154 0.250632 0 0 0 
-0.018136 0.048681 0.255921 0 0 0 
-0.018908 0.048216 0.261110 0 0 0 
-0.019666 0.047761 0.266201 0 0 0 
-0.020410 0.047314 0.271197 0 0 0 
-0.021140 0.046875 0.276100 0 0 0 
-0.021856 0.046445 0.280913 0 0 0 
-0.022560 0.046022 0.285638 0 0 0 
-0.023250 0.045607 0.290278 0 0 0 
-0.023929 0.045199 0.294835 0 0 0 
-0.024593 0.044795 0.299353 0 0 0 
-0.025256 0.044416 0.303591 0 0 0 
-0.025676 0.043650 0.312149 0 0 0 
-0.025991 0.042760 0.322098 0 0 0 
-0.026293 0.041905 0.331650 0 0 0 
-0.026584 0.041084 0.340827 0 0 0 
-0.026863 0.040294 0.349652 0 0 0 
-0.027132 0.039535 0.358144 0 0 0 
-0.027390 0.038803 0.366321 0 0 0 
-0.027640 0.038098 0.374202 0 0 0 
-0.027880 0.037418 0.381801 0 0 0 
-0.028111 0.036761 0.389143 0 0 0 
-0.028334 0.036126 0.396242 0 0 0 
0.028783 0.037417 0.389847 0 0 0 
0.028562 0.038082 0.382562 0 0 0 
0.028332 0.038771 0.375014 0 0 0 
0.028095 0.039485 0.367187 0 0 0 
0.027848 0.040225 0.359067 0 0 0 
0.027593 0.040995 0.350636 0 0 0 
0.027327 0.041794 0.341877 0 0 0 
0.027050 0.042625 0.332770 0 0 0 
0.026763 0.043489 0.323292 0 0 0 
0.026463 0.044389 0.313423 0 0 0 
0.025816 0.044747 0.309503 0 0 0 
0.025165 0.045123 0.305379 0 0 0 
0.024503 0.045506 0.301184 0 0 0 
0.023830 0.045895 0.296918 0 0 0 
0.023159 0.046319 0.292276 0 0 0 
0.022470 0.046737 0.287687 0 0 0 
0.021768 0.047164 0.283014 0 0 0 
0.021053 0.047598 0.278255 0 0 0 
0.020325 0.048040 0.273407 0 0 0 
0.019583 0.048491 0.268469 0 0 0 
0.018827 0.048950 0.263437 0 0 0 
0.017981 0.049211 0.260568 0 0 0 
0.016832 0.048626 0.266986 0 0 0 
0.015714 0.048065 0.273131 0 0 0 
0.014579 0.047382 0.280616 0 0 0 
0.013477 0.046719 0.287890 0 0 0 
0.012405 0.046076 0.294938 0 0 0 
0.011361 0.045445 0.301851 0 0 0 
0.010346 0.044832 0.308569 0 0 0 
0.008995 0.042523 0.333878 0 0 0 
-0.008446 0.043920 0.318574 0 0 0 
-0.009474 0.044786 0.309076 0 0 0 
-0.010476 0.045398 0.302373 0 0 0 
-0.011507 0.046027 0.295470 0 0 0 
-0.012565 0.046670 0.288429 0 0 0 
-0.013654 0.047332 0.281165 0 0 0 
-0.014774 0.048014 0.273691 0 0 0 
-0.015879 0.048570 0.267598 0 0 0 
-0.017015 0.049155 0.261189 0 0 0 
-0.017829 0.048796 0.265124 0 0 0 
-0.018592 0.048338 0.270139 0 0 0 
-0.019340 0.047889 0.275062 0 0 0 
-0.020074 0.047448 0.279894 0 0 0 
-0.020795 0.047016 0.284637 0 0 0 
-0.021503 0.046591 0.289295 0 0 0 
-0.022199 0.046173 0.293870 0 0 0 
-0.022878 0.045756 0.298440 0 0 0 
-0.023557 0.045368 0.302693 0 0 0 
-0.024224 0.044987 0.306875 0 0 0 
-0.024880 0.044612 0.310987 0 0 0 
-0.025513 0.044222 0.315258 0 0 0 
-0.025829 0.043326 0.325082 0 0 0 
-0.026132 0.042465 0.334516 0 0 0 
-0.026424 0.041638 0.343582 0 0 0 
-0.026705 0.040843 0.352302 0 0 0 
-0.026975 0.040077 0.360695 0 0 0 
-0.027235 0.039339 0.368779 0 0 0 
-0.027486 0.038629 0.376571 0 0 0 
-0.027728 0.037943 0.384086 0 0 0 
-0.027961 0.037281 0.391341 0 0 0 
0.028629 0.037934 0.392032 0 0 0 
0.028406 0.038603 0.384830 0 0 0 
0.028176 0.039298 0.377364 0 0 0 
0.027937 0.040017 0.369625 0 0 0 
0.027689 0.040764 0.361597 0 0 0 
0.027431 0.041539 0.353264 0 0 0 
0.027164 0.042343 0.344608 0 0 0 
0.026886 0.043180 0.335610 0 0 0 
0.026597 0.044051 0.326249 0 0 0 
0.026070 0.044572 0.320645 0 0 0 
0.025437 0.044938 0.316706 0 0 0 
0.024792 0.045310 0.312703 0 0 0 
0.024137 0.045689 0.308632 0 0 0 
0.023471 0.046073 0.304493 0 0 0 
0.022794 0.046465 0.300284 0 0 0 
0.022113 0.046879 0.295832 0 0 0 
0.021419 0.047299 0.291307 0 0 0 
0.020712 0.047728 0.286701 0 0 0 
0.019993 0.048164 0.282010 0 0 0 
0.019260 0.048608 0.277232 0 0 0 
0.018513 0.049061 0.272366 0 0 0 
0.017566 0.048999 0.273027 0 0 0 
0.016458 0.048458 0.278845 0 0 0 
0.015325 0.047777 0.286169 0 0 0 
0.014223 0.047115 0.293290 0 0 0 
0.013152 0.046471 0.300215 0 0 0 
0.012109 0.045842 0.306985 0 0 0 
0.011094 0.045229 0.313574 0 0 0 
0.010105 0.044631 0.320007 0 0 0 
-0.009253 0.044585 0.320505 0 0 0 
-0.010230 0.045182 0.314081 0 0 0 
-0.011232 0.045794 0.307500 0 0 0 
-0.012263 0.046422 0.300740 0 0 0 
-0.013320 0.047066 0.293822 0 0 0 
-0.014408 0.047727 0.286711 0 0 0 
-0.015527 0.048407 0.279397 0 0 0 
-0.016622 0.048943 0.273629 0 0 0 
-0.017533 0.048907 0.274020 0 0 0 
-0.018285 0.048456 0.278871 0 0 0 
-0.019024 0.048013 0.283633 0 0 0 
-0.019749 0.047578 0.288309 0 0 0 
-0.020462 0.047151 0.292901 0 0 0 
-0.021157 0.046722 0.297523 0 0 0 
-0.021851 0.046325 0.301792 0 0 0 
-0.022534 0.045934 0.305989 0 0 0 
-0.023205 0.045551 0.310116 0 0 0 
-0.023865 0.045173 0.314174 0 0 0 
-0.024514 0.044802 0.318166 0 0 0 
-0.025153 0.044437 0.322092 0 0 0 
-0.025669 0.043885 0.328029 0 0 0 
-0.025974 0.043019 0.337347 0 0 0 
-0.026267 0.042186 0.346304 0 0 0 
-0.026549 0.041385 0.354921 0 0 0 
-0.026820 0.040613 0.363217 0 0 0 
-0.027082 0.039870 0.371209 0 0 0 
-0.027334 0.039154 0.378914 0 0 0 
-0.027577 0.038462 0.386348 0 0 0 
-0.027812 0.037796 0.393515 0 0 0 
0.028477 0.038444 0.394204 0 0 0 
0.028253 0.039119 0.387074 0 0 0 
0.028021 0.039819 0.379689 0 0 0 
0.027780 0.040544 0.372036 0 0 0 
0.027531 0.041296 0.364098 0 0 0 
0.027272 0.042076 0.355861 0 0 0 
0.027003 0.042887 0.347306 0 0 0 
0.026723 0.043729 0.338415 0 0 0 
0.026313 0.044404 0.331292 0 0 0 
0.025696 0.044761 0.327527 0 0 0 
0.025068 0.045123 0.323701 0 0 0 
0.024431 0.045491 0.319813 0 0 0 
0.023782 0.045866 0.315861 0 0 0 
0.023123 0.046246 0.311843 0 0 0 
0.022453 0.046633 0.307758 0 0 0 
0.021772 0.047027 0.303605 0 0 0 
0.021079 0.047427 0.299380 0 0 0 
0.020382 0.047854 0.294877 0 0 0 
0.019671 0.048284 0.290335 0 0 0 
0.018947 0.048722 0.285711 0 0 0 
0.018210 0.049168 0.281002 0 0 0 
0.017185 0.048843 0.284436 0 0 0 
0.016055 0.048164 0.291604 0 0 0 
0.014955 0.047504 0.298568 0 0 0 
0.013884 0.046859 0.305382 0 0 0 
0.012842 0.046230 0.312014 0 0 0 
0.011827 0.045618 0.318472 0 0 0 
0.010839 0.045023 0.324754 0 0 0 
0.011209 0.050442 0.267555 0 0 0 
-0.009043 0.044392 0.331414 0 0 0 
-0.009995 0.044977 0.325241 0 0 0 
-0.010971 0.045571 0.318971 0 0 0 
-0.011973 0.046182 0.312523 0 0 0 
-0.013003 0.046809 0.305900 0 0 0 
-0.014060 0.047454 0.299095 0 0 0 
-0.015147 0.048113 0.292139 0 0 0 
-0.016264 0.048791 0.284980 0 0 0 
-0.017246 0.049014 0.282625 0 0 0 
-0.017989 0.048570 0.287319 0 0 0 
-0.018718 0.048133 0.291929 0 0 0 
-0.019435 0.047704 0.296457 0 0 0 
-0.020140 0.047284 0.300888 0 0 0 
-0.020838 0.046885 0.305100 0 0 0 
-0.021525 0.046493 0.309241 0 0 0 
-0.022200 0.046107 0.313314 0 0 0 
-0.022864 0.045728 0.317320 0 0 0 
-0.023517 0.045354 0.321260 0 0 0 
-0.024160 0.044987 0.325137 0 0 0 
-0.024792 0.044626 0.328951 0 0 0 
-0.025414 0.044270 0.332704 0 0 0 
-0.025816 0.043565 0.340144 0 0 0 
-0.026111 0.042727 0.348994 0 0 0 
-0.026394 0.041920 0.357511 0 0 0 
-0.026667 0.041143 0.365711 0 0 0 
-0.026930 0.040395 0.373613 0 0 0 
-0.027183 0.039673 0.381233 0 0 0 
-0.027428 0.038976 0.388585 0 0 0 
-0.027664 0.038304 0.395683 0 0 0 
0.028326 0.038949 0.396348 0 0 0 
0.028101 0.039630 0.389294 0 0 0 
0.027867 0.040334 0.381989 0 0 0 
0.027625 0.041065 0.374420 0 0 0 
0.027374 0.041822 0.366571 0 0 0 
0.027114 0.042608 0.358428 0 0 0 
0.026844 0.043424 0.349973 0 0 0 
0.026563 0.044271 0.341187 0 0 0 
0.025944 0.044591 0.337874 0 0 0 
0.025332 0.044944 0.334214 0 0 0 
0.024711 0.045303 0.330497 0 0 0 
0.024079 0.045667 0.326719 0 0 0 
0.023437 0.046038 0.322880 0 0 0 
0.022785 0.046414 0.318979 0 0 0 
0.022122 0.046797 0.315013 0 0 0 
0.021448 0.047186 0.310981 0 0 0 
0.020763 0.047582 0.306881 0 0 0 
0.020066 0.047984 0.302713 0 0 0 
0.019357 0.048393 0.298473 0 0 0 
0.018645 0.048832 0.293919 0 0 0 
0.017875 0.049156 0.290567 0 0 0 
0.016770 0.048544 0.296910 0 0 0 
0.015670 0.047882 0.303769 0 0 0 
0.014601 0.047238 0.310444 0 0 0 
0.013560 0.046611 0.316942 0 0 0 
0.012546 0.046000 0.323269 0 0 0 
0.011558 0.045406 0.329431 0 0 0 
0.010595 0.044824 0.335460 0 0 0 
0.010135 0.046453 0.318583 0 0 0 
-0.009601 0.048004 0.302505 0 0 0 
-0.009770 0.044778 0.335938 0 0 0 
-0.010721 0.045359 0.329916 0 0 0 
-0.011697 0.045953 0.323762 0 0 0 
-0.012699 0.046562 0.317443 0 0 0 
-0.013728 0.047189 0.310955 0 0 0 
-0.014784 0.047832 0.304289 0 0 0 
-0.015870 0.048493 0.297439 0 0 0 
-0.016962 0.049100 0.291144 0 0 0 
-0.017702 0.048680 0.295498 0 0 0 
-0.018422 0.048248 0.299980 0 0 0 
-0.019136 0.047840 0.304208 0 0 0 
-0.019838 0.047439 0.308364 0 0 0 
-0.020528 0.047044 0.312451 0 0 0 
-0.021207 0.046656 0.316471 0 0 0 
-0.021875 0.046275 0.320425 0 0 0 
-0.022532 0.045899 0.324315 0 0 0 
-0.023179 0.045530 0.328142 0 0 0 
-0.023815 0.045167 0.331909 0 0 0 
-0.024441 0.044809 0.335615 0 0 0 
-0.025058 0.044457 0.339264 0 0 0 
-0.025661 0.044105 0.342908 0 0 0 
-0.025957 0.043262 0.351653 0 0 0 
-0.026241 0.042449 0.360070 0 0 0 
-0.026515 0.041667 0.368177 0 0 0 
-0.026780 0.040913 0.375990 0 0 0 
-0.027034 0.040186 0.383526 0 0 0 
-0.027280 0.039484 0.390798 0 0 0 
0.027951 0.040134 0.391490 0 0 0 
0.027716 0.040844 0.384264 0 0 0 
0.027472 0.041580 0.376777 0 0 0 
0.027220 0.042342 0.369016 0 0 0 
0.026958 0.043133 0.360965 0 0 0 
0.026687 0.043954 0.352608 0 0 0 
0.026181 0.044429 0.347777 0 0 0 
0.025585 0.044773 0.344273 0 0 0 
0.024979 0.045123 0.340715 0 0 0 
0.024363 0.045478 0.337101 0 0 0 
0.023738 0.045839 0.333429 0 0 0 
0.023103 0.046205 0.329699 0 0 0 
0.022457 0.046577 0.325908 0 0 0 
0.021801 0.046956 0.322056 0 0 0 
0.021134 0.047341 0.318141 0 0 0 
0.020456 0.047732 0.314162 0 0 0 
0.019767 0.048129 0.310115 0 0 0 
0.019067 0.048533 0.306001 0 0 0 
0.018354 0.048944 0.301818 0 0 0 
0.017469 0.048912 0.302146 0 0 0 
0.016371 0.048252 0.308864 0 0 0 
0.015303 0.047610 0.315403 0 0 0 
0.014263 0.046984 0.321771 0 0 0 
0.013250 0.046375 0.327973 0 0 0 
0.012263 0.045781 0.334015 0 0 0 
0.011301 0.045202 0.339907 0 0 0 
0.010361 0.044634 0.345693 0 0 0 
-0.009554 0.044587 0.346163 0 0 0 
-0.010483 0.045156 0.340375 0 0 0 
-0.011433 0.045734 0.334494 0 0 0 
-0.012409 0.046327 0.328460 0 0 0 
-0.013410 0.046935 0.322266 0 0 0 
-0.014438 0.047560 0.315907 0 0 0 
-0.015493 0.048202 0.309377 0 0 0 
-0.016578 0.048861 0.302668 0 0 0 
-0.017428 0.048797 0.303312 0 0 0 
-0.018145 0.048388 0.307483 0 0 0 
-0.018851 0.047985 0.311585 0 0 0 
-0.019545 0.047588 0.315619 0 0 0 
-0.020228 0.047198 0.319587 0 0 0 
-0.020900 0.046815 0.323491 0 0 0 
-0.021560 0.046438 0.327331 0 0 0 
-0.022211 0.046066 0.331111 0 0 0 
-0.022850 0.045701 0.334830 0 0 0 
-0.023480 0.045341 0.338490 0 0 0 
-0.024100 0.044987 0.342094 0 0 0 
-0.024711 0.044639 0.345642 0 0 0 
-0.025312 0.044296 0.349135 0 0 0 
-0.025805 0.043790 0.354280 0 0 0 
-0.026091 0.042973 0.362600 0 0 0 
-0.026366 0.042185 0.370614 0 0 0 
-0.026631 0.041426 0.378340 0 0 0 
-0.026887 0.040694 0.385794 0 0 0 
-0.027134 0.039987 0.392988 0 0 0 
0.027802 0.040634 0.393663 0 0 0 
0.027566 0.041349 0.386514 0 0 0 
0.027321 0.042089 0.379109 0 0 0 
0.027067 0.042857 0.371434 0 0 0 
0.026804 0.043653 0.363474 0 0 0 
0.026409 0.044274 0.357264 0 0 0 
0.025826 0.044609 0.353907 0 0 0 
0.025235 0.044950 0.350498 0 0 0 
0.024635 0.045296 0.347037 0 0 0 
0.024025 0.045648 0.343522 0 0 0 
0.023406 0.046005 0.339952 0 0 0 
0.022777 0.046367 0.336325 0 0 0 
0.022138 0.046736 0.332641 0 0 0 
0.021489 0.047110 0.328898 0 0 0 
0.020829 0.047490 0.325095 0 0 0 
0.020159 0.047877 0.321230 0 0 0 
0.019477 0.048270 0.317301 0 0 0 
0.018785 0.048669 0.313307 0 0 0 
0.018153 0.049273 0.307273 0 0 0 
0.017058 0.048615 0.313855 0 0 0 
0.015991 0.047974 0.320263 0 0 0 
0.014953 0.047350 0.326504 0 0 0 
0.013940 0.046742 0.332585 0 0 0 
0.012954 0.046149 0.338511 0 0 0 
0.011992 0.045571 0.344286 0 0 0 
0.011054 0.045005 0.349948 0 0 0 
0.010138 0.044451 0.355485 0 0 0 
-0.009348 0.044405 0.355948 0 0 0 
-0.010254 0.044959 0.350408 0 0 0 
-0.011182 0.045525 0.344751 0 0 0 
-0.012132 0.046102 0.338984 0 0 0 
-0.013107 0.046693 0.333066 0 0 0 
-0.014107 0.047301 0.326993 0 0 0 
-0.015134 0.047924 0.320760 0 0 0 
-0.016188 0.048564 0.314361 0 0 0 
-0.017168 0.048929 0.310711 0 0 0 
-0.017877 0.048524 0.314765 0 0 0 
-0.018575 0.048125 0.318747 0 0 0 
-0.019261 0.047734 0.322664 0 0 0 
-0.019936 0.047348 0.326518 0 0 0 
-0.020600 0.046969 0.330310 0 0 0 
-0.021254 0.046596 0.334042 0 0 0 
-0.021898 0.046229 0.337715 0 0 0 
-0.022531 0.045867 0.341330 0 0 0 
-0.023155 0.045511 0.344890 0 0 0 
-0.023769 0.045161 0.348394 0 0 0 
-0.024373 0.044815 0.351846 0 0 0 
-0.024969 0.044476 0.355244 0 0 0 
-0.025555 0.044141 0.358592 0 0 0 
-0.025941 0.043490 0.365101 0 0 0 
-0.026218 0.042698 0.373025 0 0 0 
-0.026484 0.041933 0.380665 0 0 0 
-0.026741 0.041196 0.388037 0 0 0 
-0.026990 0.040485 0.395154 0 0 0 
0.027655 0.041128 0.395812 0 0 0 
0.027417 0.041848 0.388739 0 0 0 
0.027171 0.042593 0.381415 0 0 0 
0.026916 0.043365 0.373825 0 0 0 
0.026652 0.044166 0.365954 0 0 0 
0.026058 0.044452 0.363142 0 0 0 
0.025481 0.044785 0.359873 0 0 0 
0.024895 0.045122 0.356555 0 0 0 
0.024300 0.045465 0.353187 0 0 0 
0.023696 0.045813 0.349767 0 0 0 
0.023083 0.046167 0.346294 0 0 0 
0.022461 0.046525 0.342768 0 0 0 
0.021828 0.046890 0.339186 0 0 0 
0.021186 0.047260 0.335548 0 0 0 
0.020533 0.047636 0.331851 0 0 0 
0.019870 0.048018 0.328095 0 0 0 
0.019196 0.048406 0.324284 0 0 0 
0.018511 0.048802 0.320392 0 0 0 
0.017730 0.048970 0.318745 0 0 0 
0.016666 0.048331 0.325026 0 0 0 
0.015629 0.047708 0.331145 0 0 0 
0.014618 0.047101 0.337108 0 0 0 
0.013632 0.046510 0.342922 0 0 0 
0.012671 0.045933 0.348587 0 0 0 
0.011734 0.045370 0.354124 0 0 0 
0.010818 0.044817 0.359560 0 0 0 
0.011351 0.050645 0.302283 0 0 0 
-0.009151 0.044231 0.365319 0 0 0 
-0.010035 0.044771 0.360012 0 0 0 
-0.010940 0.045324 0.354574 0 0 0 
-0.011867 0.045886 0.349047 0 0 0 
-0.012817 0.046462 0.343389 0 0 0 
-0.013791 0.047053 0.337582 0 0 0 
-0.014791 0.047659 0.331627 0 0 0 
-0.015816 0.048281 0.325517 0 0 0 
-0.016869 0.048919 0.319245 0 0 0 
-0.017617 0.048656 0.321827 0 0 0 
-0.018306 0.048261 0.325708 0 0 0 
-0.018985 0.047875 0.329506 0 0 0 
-0.019653 0.047494 0.333251 0 0 0 
-0.020310 0.047119 0.336936 0 0 0 
-0.020957 0.046750 0.340564 0 0 0 
-0.021594 0.046386 0.344135 0 0 0 
-0.022221 0.046028 0.347652 0 0 0 
-0.022838 0.045676 0.351114 0 0 0 
-0.023446 0.045329 0.354524 0 0 0 
-0.024045 0.044987 0.357882 0 0 0 
-0.024635 0.044651 0.361190 0 0 0 
-0.025216 0.044319 0.364449 0 0 0 
-0.025794 0.044001 0.367573 0 0 0 
-0.026071 0.043204 0.375408 0 0 0 
-0.026339 0.042435 0.382964 0 0 0 
-0.026597 0.041693 0.390256 0 0 0 
0.027271 0.042341 0.390941 0 0 0 
0.027023 0.043091 0.383696 0 0 0 
0.026767 0.043868 0.376189 0 0 0 
0.026281 0.044302 0.372002 0 0 0 
0.025717 0.044626 0.368865 0 0 0 
0.025145 0.044956 0.365682 0 0 0 
