# .PCD v0.7 - Point Cloud Data file format
VERSION 0.7
FIELDS x y z
SIZE 4 4 4
TYPE F F F
COUNT 1 1 1
WIDTH 305
HEIGHT 1
VIEWPOINT 0 0 0 1 0 0 0
POINTS 305
DATA ascii
-0.1024372 0.79982853 0.017931808
-0.094701082 0.79978651 0.018372118
-0.084365502 0.79979968 0.018234521
-0.074555896 0.79979962 0.018234521
-0.064746007 0.79979968 0.018234521
-0.054935496 0.79979968 0.018234521
-0.045125797 0.79979968 0.018234521
-0.035316002 0.79979968 0.018234521
-0.025506001 0.79979968 0.018234521
-0.0156957 0.79979968 0.018234521
-0.0058859996 0.79979962 0.018234521
0.0049050003 0.79979962 0.018234521
0.0156957 0.79979968 0.018234521
0.025506001 0.79979968 0.018234521
0.035315998 0.79979962 0.018234521
0.045125797 0.79979962 0.018234521
0.054935496 0.79979962 0.018234521
0.060821999 0.79979962 0.018234521
-0.10203719 0.80035174 0.012461448
-0.094572097 0.80038089 0.012156188
-0.084720902 0.800381 0.012156188
-0.074869603 0.800381 0.012156188
-0.065018304 0.80038089 0.012156188
-0.055167198 0.800381 0.012156188
-0.045315798 0.80038089 0.012156188
-0.035464603 0.80038089 0.012156188
-0.025613401 0.80038089 0.012156188
-0.015762001 0.80038089 0.012156188
-0.0059107998 0.80038089 0.012156188
0.0049256664 0.80038089 0.012156188
0.015761999 0.80038089 0.012156188
0.025613401 0.80038089 0.012156188
0.0354646 0.800381 0.012156188
0.045315802 0.80038089 0.012156188
0.055167198 0.80038089 0.012156188
0.061014 0.80023491 0.013682485
-0.10246783 0.79908037 0.025758008
-0.095636606 0.79908031 0.025758008
-0.085198581 0.79909718 0.025581952
-0.074522689 0.79906237 0.025945067
-0.064408332 0.79908019 0.025758008
-0.054649528 0.79908025 0.025758008
-0.044890601 0.79908019 0.025758008
-0.035131734 0.79908025 0.025758008
-0.02537293 0.79908025 0.025758008
-0.015614199 0.79908025 0.025758008
-0.0058553335 0.79908019 0.025758008
0.0048794448 0.79908019 0.025758008
0.015614199 0.79908025 0.025758008
0.025372934 0.79908025 0.025758008
0.035131734 0.79908031 0.025758008
0.044890597 0.79908025 0.025758008
0.054649536 0.79908025 0.025758008
0.060505003 0.79908037 0.025758008
-0.10183066 0.79822606 0.034686625
-0.095041864 0.79822612 0.034686625
-0.085343674 0.79822612 0.034686625
-0.075645603 0.79822612 0.034686625
-0.064977616 0.79822606 0.034686625
-0.054309662 0.798226 0.034686625
-0.044611465 0.79822606 0.034686625
-0.034913268 0.798226 0.034686625
-0.025215136 0.798226 0.034686625
-0.015517132 0.79822606 0.034686625
-0.0058188671 0.79822612 0.034686625
0.0048490558 0.79822612 0.034686625
0.015517133 0.798226 0.034686625
0.025215132 0.798226 0.034686625
0.034913264 0.798226 0.034686625
0.044611469 0.79822606 0.034686625
0.054309666 0.798226 0.034686625
0.060128331 0.79822594 0.034686625
-0.10226345 0.79728144 0.044564031
-0.094618089 0.79722369 0.045168944
-0.084729254 0.79724348 0.044961005
-0.075100951 0.79724348 0.044961005
-0.065472603 0.79724354 0.044961005
-0.055097569 0.79726171 0.044771146
-0.044558045 0.79722357 0.045168944
-0.034662101 0.79724348 0.044961005
-0.025033599 0.79724348 0.044961005
-0.0154053 0.79724354 0.044961005
-0.005777 0.79724348 0.044961005
0.004814167 0.79724354 0.044961005
0.015405302 0.79724348 0.044961005
0.025033599 0.79724348 0.044961005
0.034662101 0.79724354 0.044961005
0.044558045 0.79722357 0.045168944
0.055097565 0.79726171 0.044771146
-0.10228599 0.79627413 0.055094916
-0.095247425 0.79629123 0.054915179
-0.084787302 0.79625779 0.055264086
-0.074563935 0.79627401 0.055094916
-0.065004401 0.79627407 0.055094916
-0.055445004 0.79627413 0.055094916
-0.044929553 0.79627407 0.055094916
-0.034414131 0.79627419 0.055094916
-0.024854666 0.79627419 0.055094916
-0.015295132 0.79627401 0.055094916
-0.0057357331 0.79627407 0.055094916
0.004779777 0.79627413 0.055094916
0.015295132 0.79627401 0.055094916
0.024854666 0.79627407 0.055094916
0.034414131 0.79627407 0.055094916
0.044929557 0.79627413 0.055094916
0.055445001 0.79627407 0.055094916
0.061055999 0.796 0.057966471
-0.10208751 0.79526508 0.065644674
-0.09491615 0.7953192 0.065078035
-0.085424602 0.7953192 0.065078035
-0.074983701 0.79531914 0.065078028
-0.064543001 0.79531926 0.065078035
-0.055051357 0.79531926 0.065078035
-0.045559745 0.7953192 0.065078035
-0.035118997 0.79531914 0.065078035
-0.02467815 0.7953192 0.065078035
-0.0151866 0.7953192 0.06507802
-0.00569495 0.79531926 0.065078035
0.0047457917 0.79531926 0.065078028
0.0151866 0.7953192 0.06507802
0.024678148 0.7953192 0.065078035
0.035118997 0.79531932 0.065078035
0.045559745 0.7953192 0.065078035
0.055051345 0.7953192 0.065078035
0.060746253 0.7953192 0.065078035
-0.10235386 0.79441553 0.074527815
-0.094900168 0.79436159 0.075091541
-0.0848222 0.79437745 0.074927129
-0.075397395 0.79437733 0.074927121
-0.065030381 0.79437745 0.074927129
-0.054663129 0.79437733 0.074927121
-0.045238335 0.79437745 0.074927121
-0.034871385 0.79437733 0.074927121
-0.024504201 0.79437745 0.074927121
-0.015079401 0.79437745 0.074927129
-0.0056548663 0.79437739 0.074927121
0.0047123893 0.79437745 0.074927129
0.0150794 0.79437745 0.074927129
0.024504198 0.79437745 0.074927121
0.034871385 0.79437733 0.074927121
0.045238335 0.79437739 0.074927121
0.054663129 0.79437739 0.074927129
0.060318336 0.79437739 0.074927129
-0.10201025 0.7934491 0.084632173
-0.095204428 0.79346794 0.08443515
-0.084949218 0.79343188 0.084812053
-0.074869744 0.79344904 0.084632158
-0.065252326 0.79346776 0.084435143
-0.05500517 0.79343176 0.08481203
-0.044921897 0.7934491 0.084632166
-0.035300046 0.79346776 0.084435135
-0.025061261 0.79343182 0.084812045
-0.014973952 0.79344898 0.084632151
-0.0056152004 0.79344916 0.084632166
0.004679333 0.79344922 0.084632158
0.014973951 0.79344893 0.084632143
0.025061261 0.79343182 0.08481203
0.03530005 0.79346794 0.084435157
0.044921897 0.7934491 0.084632166
0.055005178 0.79343182 0.084812023
0.060075998 0.7938447 0.08049494
-0.10232482 0.7924391 0.095192909
-0.094952427 0.79238522 0.095755421
-0.085162997 0.79242235 0.095368229
-0.074991956 0.79238701 0.095739082
-0.064991049 0.79240376 0.095562063
-0.054986473 0.79242086 0.095385529
-0.044823572 0.79238528 0.095755443
-0.035280902 0.79240382 0.095562078
-0.025068084 0.79240394 0.095562071
-0.01485505 0.79240376 0.095562063
-0.0055706003 0.79240382 0.095562078
0.0046421667 0.79240376 0.095562071
0.01485505 0.79240382 0.095562078
0.025068084 0.792404 0.095562078
0.035280902 0.79240376 0.095562063
0.044823572 0.79238528 0.095755428
0.054986473 0.79242074 0.095385522
0.061094999 0.79201549 0.099622786
-0.10234633 0.79150254 0.10498744
-0.0949701 0.79150236 0.10498744
-0.084827535 0.79150236 0.10498745
-0.074964471 0.79151756 0.10483027
-0.064879999 0.79148656 0.10515441
-0.055322267 0.79150254 0.10498745
-0.045180004 0.79150242 0.10498744
-0.035037402 0.79150242 0.10498744
-0.024895055 0.79150236 0.10498744
-0.014752668 0.79150259 0.10498743
-0.0055321325 0.79150254 0.10498743
0.004610111 0.79150236 0.10498744
0.014752666 0.79150242 0.10498743
0.024895053 0.79150236 0.10498745
0.035037402 0.79150254 0.10498745
0.045179997 0.79150248 0.10498744
0.055322263 0.79150236 0.10498745
0.06085467 0.79150248 0.10498744
-0.1021543 0.79056329 0.11480486
-0.094986379 0.79063177 0.11408888
-0.084952004 0.79059726 0.11444966
-0.07508941 0.79061371 0.11427744
-0.065016583 0.79061371 0.11427748
-0.054943554 0.79061371 0.11427746
-0.044870544 0.79061371 0.11427748
-0.034797601 0.79061371 0.11427747
-0.024724582 0.79061371 0.11427748
-0.014651699 0.79061371 0.11427748
-0.0054943007 0.79061371 0.11427747
0.0045785839 0.79061371 0.11427746
0.014651701 0.79061371 0.11427747
0.024724582 0.79061371 0.11427747
0.034797598 0.79061371 0.11427746
0.044870544 0.79061371 0.11427748
0.05494355 0.79061371 0.11427747
0.060438249 0.79061377 0.11427747
-0.10216691 0.78966248 0.12422428
-0.094973736 0.78959006 0.12497947
-0.084927998 0.7896353 0.12450747
-0.074987777 0.78959024 0.12497952
-0.064934954 0.78963524 0.12450745
-0.05500187 0.78959006 0.12497952
-0.044942226 0.78963542 0.12450747
-0.035015997 0.78959012 0.1249795
-0.024949046 0.7896353 0.12450749
-0.015029953 0.78959012 0.12497952
-0.00545175 0.78961277 0.12474351
0.0045431252 0.78961253 0.12474348
0.015029953 0.78959024 0.12497952
0.024949046 0.78963542 0.12450749
0.035015997 0.78959012 0.1249795
0.044942223 0.7896353 0.12450745
0.055001859 0.78959012 0.1249795
0.060084499 0.78986132 0.12214735
-0.102149 0.78858674 0.13547403
-0.094876334 0.78864324 0.13488203
-0.084996663 0.78860998 0.13523088
-0.074833751 0.78862733 0.13504854
-0.064916 0.78862751 0.13504854
-0.054998133 0.78862745 0.13504857
-0.045080453 0.78862727 0.13504854
-0.035162706 0.78862733 0.13504854
-0.025245 0.78862745 0.13504855
-0.015327417 0.78862745 0.13504855
-0.0054095997 0.78862739 0.13504854
0.0045080003 0.78862733 0.13504855
0.015327416 0.78862739 0.13504854
0.025245 0.78862727 0.13504854
0.035162706 0.78862733 0.13504852
0.045080449 0.78862727 0.13504854
0.054998126 0.78862739 0.13504854
0.061133001 0.78826141 0.13887787
-0.10218627 0.78768945 0.14485282
-0.09508162 0.78763944 0.14537522
-0.08499787 0.78765672 0.14519563
-0.075155959 0.78765666 0.14519565
-0.065314166 0.78765649 0.14519568
-0.0547783 0.7876724 0.14503168
-0.04498443 0.78763944 0.14537522
-0.03489387 0.78765661 0.14519565
-0.025052097 0.78765661 0.14519565
-0.015210081 0.78765672 0.14519565
-0.0053683501 0.78765661 0.14519563
0.0044736248 0.78765661 0.14519565
0.01521008 0.78765661 0.14519565
0.0250521 0.78765661 0.14519565
0.034893874 0.78765678 0.14519566
0.044984426 0.78763944 0.14537524
0.054778297 0.78767228 0.14503168
0.060840499 0.78765666 0.14519566
-0.10211112 0.78670079 0.15518868
-0.09500771 0.78670073 0.15518868
-0.084997758 0.78671783 0.15501136
-0.075270474 0.78668529 0.15535057
-0.064818338 0.78670096 0.15518865
-0.055051196 0.78670073 0.15518865
-0.045284126 0.7867009 0.15518865
-0.034628958 0.78670067 0.15518869
-0.024861852 0.78670073 0.15518865
-0.015094668 0.78670096 0.15518869
-0.0053276508 0.7867009 0.15518865
0.0044397088 0.7867009 0.15518865
0.015094667 0.7867009 0.15518866
0.02486185 0.78670073 0.15518868
0.034628958 0.78670073 0.15518866
0.045284126 0.78670079 0.15518868
0.0550512 0.78670067 0.15518871
0.060378749 0.78670084 0.15518868
-0.10222318 0.78575951 0.16503148
-0.094933622 0.78577614 0.16485681
-0.085277088 0.78574431 0.16519089
-0.074904785 0.78575963 0.16503145
-0.064967528 0.78577626 0.16485679
-0.05531878 0.78574431 0.16519089
-0.044942837 0.78575951 0.16503145
-0.035001617 0.78577602 0.16485682
-0.025360476 0.78574419 0.16519091
-0.014980961 0.78575945 0.16503148
-0.0052872496 0.78575957 0.16503146
0.0044060419 0.78575951 0.16503145
0.014980958 0.78575945 0.16503145
0.025360476 0.78574419 0.16519091
0.035001617 0.78577626 0.16485682
0.044942837 0.78575951 0.16503145
0.055318784 0.78574431 0.16519091
0.060093001 0.78611034 0.1613639
