# .PCD v0.7 - Point Cloud Data file format
VERSION 0.7
FIELDS x y z
SIZE 4 4 4
TYPE F F F
COUNT 1 1 1
WIDTH 1609
HEIGHT 1
VIEWPOINT 0 0 0 1 0 0 0
POINTS 1609
DATA ascii
-0.142039 0.205539 0.95300001
-0.142039 0.20721 0.95300001
-0.142039 0.20888101 0.95300001
-0.142039 0.21055201 0.95300001
-0.142039 0.21222299 0.95300001
-0.142039 0.21389399 0.95300001
-0.142039 0.215565 0.95300001
-0.142039 0.217237 0.95300001
-0.14189 0.218678 0.95200002
-0.14189 0.220347 0.95200002
-0.14189 0.22201601 0.95200002
-0.14174099 0.223451 0.95099998
-0.141592 0.22488201 0.94999999
-0.141294 0.22607 0.94800001
-0.14099599 0.22725201 0.94599998
-0.140698 0.22842699 0.94400001
-0.14040001 0.22959501 0.94199997
-0.140251 0.231001 0.94099998
-0.140102 0.23240399 0.94
-0.139953 0.233803 0.93900001
-0.13980401 0.235199 0.93800002
-0.13965499 0.236591 0.93699998
-0.139506 0.23797999 0.93599999
-0.139506 0.239621 0.93599999
-0.139356 0.241005 0.935
-0.139356 0.242644 0.935
-0.13920701 0.244022 0.93400002
-0.13920701 0.24566001 0.93400002
-0.13920701 0.247298 0.93400002
-0.13920701 0.248936 0.93400002
-0.13920701 0.25057301 0.93400002
-0.13920701 0.252211 0.93400002
-0.139356 0.25412101 0.935
-0.139356 0.25576001 0.935
-0.139356 0.25740001 0.935
-0.139356 0.25903901 0.935
-0.13905799 0.26012099 0.93300003
-0.138909 0.26147601 0.93199998
-0.13876 0.26282799 0.93099999
-0.138611 0.26417699 0.93000001
-0.13846201 0.265522 0.92900002
-0.138164 0.26657501 0.92699999
-0.138015 0.267912 0.926
-0.13786601 0.26924399 0.92500001
-0.13771699 0.27057299 0.92400002
-0.137419 0.271604 0.92199999
-0.13727 0.27292499 0.921
-0.13727 0.27454001 0.921
-0.13712101 0.275855 0.92000002
-0.136972 0.27716601 0.91900003
-0.136823 0.278474 0.91799998
-0.136674 0.27977899 0.917
-0.13652501 0.28108001 0.91600001
-0.13652501 0.282686 0.91600001
-0.13637599 0.28398201 0.91500002
-0.136227 0.285274 0.91399997
-0.136227 0.28687701 0.91399997
-0.136227 0.28848001 0.91399997
-0.136078 0.289765 0.91299999
-0.136078 0.29136601 0.91299999
-0.135928 0.29264599 0.912
-0.135928 0.294245 0.912
-0.135928 0.29584399 0.912
-0.135928 0.297443 0.912
-0.13577899 0.298715 0.91100001
-0.13577899 0.30031201 0.91100001
-0.135928 0.302241 0.912
-0.135928 0.30384001 0.912
-0.135928 0.305439 0.912
-0.135928 0.30703801 0.912
-0.135928 0.30863801 0.912
-0.135928 0.31023699 0.912
-0.135928 0.311836 0.912
-0.135928 0.31343499 0.912
-0.135928 0.315034 0.912
-0.135928 0.31663299 0.912
-0.135928 0.31823301 0.912
-0.135928 0.319832 0.912
-0.135928 0.32143101 0.912
-0.135928 0.32302999 0.912
-0.135928 0.32462901 0.912
-0.13577899 0.32587099 0.91100001
-0.13577899 0.32746801 0.91100001
-0.13577899 0.329065 0.91100001
-0.13577899 0.330663 0.91100001
-0.135928 0.332625 0.912
-0.135928 0.33422399 0.912
-0.135928 0.335823 0.912
-0.135928 0.33742201 0.912
-0.135928 0.33902201 0.912
-0.135928 0.34062099 0.912
-0.135928 0.34222001 0.912
-0.135928 0.34381899 0.912
-0.135928 0.34541801 0.912
-0.135928 0.34701699 0.912
-0.135928 0.34861699 0.912
-0.135928 0.350216 0.912
-0.135928 0.35181499 0.912
-0.135928 0.353414 0.912
-0.135928 0.35501301 0.912
-0.135928 0.356612 0.912
-0.135928 0.35821101 0.912
-0.135928 0.35981101 0.912
-0.135928 0.36140999 0.912
-0.135928 0.36300901 0.912
-0.135928 0.36460799 0.912
-0.135928 0.366207 0.912
-0.135928 0.36780599 0.912
-0.135928 0.36940601 0.912
-0.136078 0.37141201 0.91299999
-0.136078 0.37301201 0.91299999
-0.136078 0.37461299 0.91299999
-0.136078 0.376214 0.91299999
-0.135928 0.37740099 0.912
-0.136078 0.37941599 0.91299999
-0.135928 0.38060001 0.912
-0.135928 0.38219899 0.912
-0.135928 0.383798 0.912
-0.135928 0.38539699 0.912
-0.135928 0.386996 0.912
-0.135928 0.38859501 0.912
-0.135928 0.39019501 0.912
-0.135928 0.391794 0.912
-0.135928 0.39339301 0.912
-0.135928 0.39499199 0.912
-0.135928 0.39659101 0.912
-0.135928 0.39818999 0.912
-0.135928 0.39978999 0.912
-0.135928 0.401389 0.912
-0.135928 0.40298799 0.912
-0.135928 0.404587 0.912
-0.135928 0.40618601 0.912
-0.135928 0.407785 0.912
-0.135928 0.409385 0.912
-0.135928 0.41098401 0.912
-0.135928 0.41258299 0.912
-0.135928 0.41418201 0.912
-0.135928 0.41578099 0.912
-0.135928 0.41738001 0.912
-0.135928 0.41897899 0.912
-0.135928 0.42057899 0.912
-0.135928 0.422178 0.912
-0.135928 0.42377701 0.912
-0.135928 0.425376 0.912
-0.136078 0.427443 0.91299999
-0.136078 0.42904401 0.91299999
-0.136078 0.43064499 0.91299999
-0.135928 0.43177301 0.912
-0.135928 0.43337199 0.912
-0.135928 0.434971 0.912
-0.135928 0.43656999 0.912
-0.135928 0.438169 0.912
-0.135928 0.439769 0.912
-0.135928 0.44136801 0.912
-0.135928 0.442967 0.912
-0.135928 0.44456601 0.912
-0.135928 0.446165 0.912
-0.135928 0.44776401 0.912
-0.135928 0.44936299 0.912
-0.135928 0.45096299 0.912
-0.136078 0.453058 0.91299999
-0.136078 0.45465899 0.91299999
-0.135928 0.45576 0.912
-0.135928 0.45735899 0.912
-0.135928 0.458958 0.912
-0.135928 0.460558 0.912
-0.135928 0.46215701 0.912
-0.135928 0.463756 0.912
-0.135928 0.46535501 0.912
-0.135928 0.46695399 0.912
-0.135928 0.46855301 0.912
-0.135928 0.470153 0.912
-0.135928 0.47175199 0.912
-0.135928 0.473351 0.912
-0.135928 0.47494999 0.912
-0.13577899 0.47602701 0.91100001
-0.13577899 0.477624 0.91100001
-0.13577899 0.47922099 0.91100001
-0.13577899 0.48081899 0.91100001
-0.13577899 0.482416 0.91100001
-0.13577899 0.484014 0.91100001
-0.13577899 0.48561099 0.91100001
-0.13577899 0.48720801 0.91100001
-0.13577899 0.48880601 0.91100001
-0.13577899 0.490403 0.91100001
-0.13577899 0.492001 0.91100001
-0.135928 0.49414 0.912
-0.13577899 0.49519601 0.91100001
-0.13577899 0.496793 0.91100001
-0.140957 0 0.95700002
-0.14081 0.001676 0.95599997
-0.14081 0.0033529999 0.95599997
-0.14081 0.0050289999 0.95599997
-0.14081 0.0067050001 0.95599997
-0.14081 0.008382 0.95599997
-0.14081 0.010058 0.95599997
-0.14081 0.011734 0.95599997
-0.140957 0.013425 0.95700002
-0.140957 0.015103 0.95700002
-0.13801201 0.01643 0.93699998
-0.13801201 0.018073 0.93699998
-0.13815901 0.019737 0.93800002
-0.13815901 0.021382 0.93800002
-0.13815901 0.023026001 0.93800002
-0.13815901 0.024670999 0.93800002
-0.13801201 0.026288001 0.93699998
-0.13801201 0.027930999 0.93699998
-0.13801201 0.029573999 0.93699998
-0.13801201 0.031217 0.93699998
-0.13786399 0.032825001 0.93599999
-0.13786399 0.034465998 0.93599999
-0.140957 0.036917001 0.95700002
-0.140957 0.038594998 0.95700002
-0.140957 0.040274002 0.95700002
-0.14081 0.041908 0.95599997
-0.13403501 0.054251999 0.91000003
-0.13403501 0.055847999 0.91000003
-0.13403501 0.057443 0.91000003
-0.13403501 0.059039 0.91000003
-0.13403501 0.060635 0.91000003
-0.13403501 0.062229998 0.91000003
-0.13403501 0.063826002 0.91000003
-0.140516 0.068585001 0.954
-0.140663 0.070331 0.95499998
-0.140516 0.071930997 0.954
-0.140516 0.073602997 0.954
-0.140516 0.075276002 0.954
-0.140516 0.076949 0.954
-0.140516 0.078621998 0.954
-0.140516 0.080294997 0.954
-0.140516 0.081967004 0.954
-0.140516 0.083640002 0.954
-0.140368 0.085224003 0.95300001
-0.140368 0.086894996 0.95300001
-0.140368 0.088565998 0.95300001
-0.140221 0.090141997 0.95200002
-0.140221 0.091811001 0.95200002
-0.140074 0.093382001 0.95099998
-0.135655 0.096896 0.921
-0.135655 0.098511003 0.921
-0.135655 0.100126 0.921
-0.135655 0.101741 0.921
-0.135655 0.103356 0.921
-0.135655 0.104971 0.921
-0.135655 0.106586 0.921
-0.135508 0.108083 0.92000002
-0.135508 0.109697 0.92000002
-0.135508 0.11131 0.92000002
-0.135508 0.112923 0.92000002
-0.135508 0.114536 0.92000002
-0.135508 0.116149 0.92000002
-0.135508 0.117763 0.92000002
-0.135655 0.119506 0.921
-0.135655 0.12112 0.921
-0.135655 0.122735 0.921
-0.135655 0.12435 0.921
-0.136981 0.13208801 0.93000001
-0.136981 0.133719 0.93000001
-0.137128 0.13549501 0.93099999
-0.13756999 0.13920701 0.93400002
-0.13756999 0.140845 0.93400002
-0.13756999 0.142483 0.93400002
-0.13756999 0.14412101 0.93400002
-0.13771699 0.145914 0.935
-0.13771699 0.147554 0.935
-0.13771699 0.149193 0.935
-0.13771699 0.150833 0.935
-0.13786399 0.15263499 0.93599999
-0.13786399 0.154277 0.93599999
-0.13786399 0.155918 0.93599999
-0.13801201 0.157728 0.93699998
-0.13801201 0.159371 0.93699998
-0.13801201 0.16101401 0.93699998
-0.13801201 0.16265599 0.93699998
-0.140221 0.16693 0.95200002
-0.140368 0.16877601 0.95300001
-0.140368 0.17044701 0.95300001
-0.140368 0.17211799 0.95300001
-0.140368 0.17378899 0.95300001
-0.140368 0.17546 0.95300001
-0.140368 0.177131 0.95300001
-0.140368 0.178802 0.95300001
-0.140368 0.180473 0.95300001
-0.140221 0.181953 0.95200002
-0.140221 0.183623 0.95200002
-0.140221 0.18529201 0.95200002
-0.140221 0.186961 0.95200002
-0.140221 0.188631 0.95200002
-0.140221 0.1903 0.95200002
-0.140221 0.19196901 0.95200002
-0.140221 0.193638 0.95200002
-0.140221 0.195308 0.95200002
-0.140221 0.196977 0.95200002
-0.140368 0.198855 0.95300001
-0.140368 0.200526 0.95300001
-0.140368 0.202197 0.95300001
-0.140368 0.203868 0.95300001
-0.140368 0.205539 0.95300001
-0.140221 0.206993 0.95200002
-0.140368 0.20888101 0.95300001
-0.140221 0.21033099 0.95200002
-0.140221 0.212001 0.95200002
-0.140221 0.21367 0.95200002
-0.140221 0.215339 0.95200002
-0.140221 0.21700899 0.95200002
-0.140221 0.218678 0.95200002
-0.140074 0.220116 0.95099998
-0.140074 0.221783 0.95099998
-0.139926 0.223216 0.94999999
-0.139779 0.224645 0.949
-0.139632 0.22607 0.94800001
-0.139337 0.22725201 0.94599998
-0.139043 0.22842699 0.94400001
-0.13874801 0.22959501 0.94199997
-0.13860101 0.231001 0.94099998
-0.13845301 0.23240399 0.94
-0.13830601 0.233803 0.93900001
-0.13815901 0.235199 0.93800002
-0.13801201 0.236591 0.93699998
-0.13801201 0.238234 0.93699998
-0.13786399 0.239621 0.93599999
-0.13786399 0.241262 0.93599999
-0.13771699 0.242644 0.935
-0.13771699 0.244284 0.935
-0.13756999 0.24566001 0.93400002
-0.13756999 0.247298 0.93400002
-0.13756999 0.248936 0.93400002
-0.13756999 0.25057301 0.93400002
-0.13756999 0.252211 0.93400002
-0.13771699 0.25412101 0.935
-0.13786399 0.25603399 0.93599999
-0.13771699 0.25740001 0.935
-0.13771699 0.25903901 0.935
-0.13756999 0.2604 0.93400002
-0.137275 0.26147601 0.93199998
-0.137128 0.26282799 0.93099999
-0.136981 0.26417699 0.93000001
-0.136833 0.265522 0.92900002
-0.136539 0.26657501 0.92699999
-0.136391 0.267912 0.926
-0.136244 0.26924399 0.92500001
-0.136097 0.27057299 0.92400002
-0.13595 0.27189901 0.92299998
-0.135802 0.27322099 0.92199999
-0.135655 0.27454001 0.921
-0.135508 0.275855 0.92000002
-0.13536 0.27716601 0.91900003
-0.135213 0.278474 0.91799998
-0.135066 0.27977899 0.917
-0.135066 0.281387 0.917
-0.134918 0.282686 0.91600001
-0.134771 0.28398201 0.91500002
-0.134624 0.285274 0.91399997
-0.134624 0.28687701 0.91399997
-0.134624 0.28848001 0.91399997
-0.134477 0.289765 0.91299999
-0.134477 0.29136601 0.91299999
-0.13432901 0.29264599 0.912
-0.13432901 0.294245 0.912
-0.134477 0.29616901 0.91299999
-0.134477 0.29776999 0.91299999
-0.13432901 0.299043 0.912
-0.13432901 0.30064201 0.912
-0.13432901 0.302241 0.912
-0.13432901 0.30384001 0.912
-0.13432901 0.305439 0.912
-0.13432901 0.30703801 0.912
-0.13432901 0.30863801 0.912
-0.13432901 0.31023699 0.912
-0.13432901 0.311836 0.912
-0.13432901 0.31343499 0.912
-0.13432901 0.315034 0.912
-0.13432901 0.31663299 0.912
-0.13432901 0.31823301 0.912
-0.13432901 0.319832 0.912
-0.13432901 0.32143101 0.912
-0.13432901 0.32302999 0.912
-0.13432901 0.32462901 0.912
-0.13418201 0.32587099 0.91100001
-0.13418201 0.32746801 0.91100001
-0.13432901 0.329427 0.912
-0.13432901 0.33102599 0.912
-0.13432901 0.332625 0.912
-0.13432901 0.33422399 0.912
-0.13432901 0.335823 0.912
-0.13432901 0.33742201 0.912
-0.13432901 0.33902201 0.912
-0.13432901 0.34062099 0.912
-0.13432901 0.34222001 0.912
-0.13432901 0.34381899 0.912
-0.13432901 0.34541801 0.912
-0.13432901 0.34701699 0.912
-0.13432901 0.34861699 0.912
-0.134477 0.3506 0.91299999
-0.134477 0.35220101 0.91299999
-0.13432901 0.353414 0.912
-0.13432901 0.35501301 0.912
-0.13432901 0.356612 0.912
-0.13432901 0.35821101 0.912
-0.13432901 0.35981101 0.912
-0.13432901 0.36140999 0.912
-0.13432901 0.36300901 0.912
-0.13432901 0.36460799 0.912
-0.13432901 0.366207 0.912
-0.13432901 0.36780599 0.912
-0.13432901 0.36940601 0.912
-0.13432901 0.371005 0.912
-0.134477 0.37301201 0.91299999
-0.13432901 0.374203 0.912
-0.13432901 0.37580201 0.912
-0.13432901 0.37740099 0.912
-0.13432901 0.37900099 0.912
-0.13432901 0.38060001 0.912
-0.13432901 0.38219899 0.912
-0.13432901 0.383798 0.912
-0.13432901 0.38539699 0.912
-0.13432901 0.386996 0.912
-0.13432901 0.38859501 0.912
-0.13432901 0.39019501 0.912
-0.13432901 0.391794 0.912
-0.13432901 0.39339301 0.912
-0.13432901 0.39499199 0.912
-0.13432901 0.39659101 0.912
-0.13432901 0.39818999 0.912
-0.13432901 0.39978999 0.912
-0.13432901 0.401389 0.912
-0.13432901 0.40298799 0.912
-0.13432901 0.404587 0.912
-0.13432901 0.40618601 0.912
-0.13432901 0.407785 0.912
-0.13432901 0.409385 0.912
-0.13432901 0.41098401 0.912
-0.13432901 0.41258299 0.912
-0.13432901 0.41418201 0.912
-0.13432901 0.41578099 0.912
-0.13432901 0.41738001 0.912
-0.13432901 0.41897899 0.912
-0.134477 0.42104 0.91299999
-0.13432901 0.422178 0.912
-0.13432901 0.42377701 0.912
-0.13432901 0.425376 0.912
-0.134477 0.427443 0.91299999
-0.134477 0.42904401 0.91299999
-0.13432901 0.43017399 0.912
-0.13432901 0.43177301 0.912
-0.13432901 0.43337199 0.912
-0.13432901 0.434971 0.912
-0.13432901 0.43656999 0.912
-0.13432901 0.438169 0.912
-0.13432901 0.439769 0.912
-0.13432901 0.44136801 0.912
-0.13432901 0.442967 0.912
-0.13432901 0.44456601 0.912
-0.13432901 0.446165 0.912
-0.13432901 0.44776401 0.912
-0.13432901 0.44936299 0.912
-0.134477 0.45145699 0.91299999
-0.134477 0.453058 0.91299999
-0.13432901 0.45416099 0.912
-0.13432901 0.45576 0.912
-0.134477 0.45786101 0.91299999
-0.13432901 0.458958 0.912
-0.134477 0.461063 0.91299999
-0.13432901 0.46215701 0.912
-0.13432901 0.463756 0.912
-0.13432901 0.46535501 0.912
-0.13432901 0.46695399 0.912
-0.13432901 0.46855301 0.912
-0.13432901 0.470153 0.912
-0.13432901 0.47175199 0.912
-0.13432901 0.473351 0.912
-0.13432901 0.47494999 0.912
-0.13418201 0.47602701 0.91100001
-0.13418201 0.477624 0.91100001
-0.13418201 0.47922099 0.91100001
-0.13418201 0.48081899 0.91100001
-0.13418201 0.482416 0.91100001
-0.13418201 0.484014 0.91100001
-0.13418201 0.48561099 0.91100001
-0.13418201 0.48720801 0.91100001
-0.13418201 0.48880601 0.91100001
-0.13418201 0.490403 0.91100001
-0.13418201 0.492001 0.91100001
-0.13432901 0.49414 0.912
-0.13432901 0.49573901 0.912
-0.13418201 0.496793 0.91100001
-0.13927899 0 0.95700002
-0.139134 0.001676 0.95599997
-0.139134 0.0033529999 0.95599997
-0.139134 0.0050289999 0.95599997
-0.139134 0.0067050001 0.95599997
-0.139134 0.008382 0.95599997
-0.139134 0.010058 0.95599997
-0.139134 0.011734 0.95599997
-0.13927899 0.013425 0.95700002
-0.13927899 0.015103 0.95700002
-0.136369 0.01643 0.93699998
-0.136369 0.018073 0.93699998
-0.13651399 0.019737 0.93800002
-0.13651399 0.021382 0.93800002
-0.13651399 0.023026001 0.93800002
-0.136369 0.024645001 0.93699998
-0.136369 0.026288001 0.93699998
-0.136369 0.027930999 0.93699998
-0.136369 0.029573999 0.93699998
-0.136369 0.031217 0.93699998
-0.136223 0.032825001 0.93599999
-0.136223 0.034465998 0.93599999
-0.136078 0.036068998 0.935
-0.135932 0.037668001 0.93400002
-0.132585 0.052714001 0.91100001
-0.132439 0.054251999 0.91000003
-0.132439 0.055847999 0.91000003
-0.132439 0.057443 0.91000003
-0.132294 0.058974002 0.90899998
-0.132439 0.060635 0.91000003
-0.132439 0.062229998 0.91000003
-0.132439 0.063826002 0.91000003
-0.138843 0.068585001 0.954
-0.138843 0.070257999 0.954
-0.138697 0.071855001 0.95300001
-0.138843 0.073602997 0.954
-0.138843 0.075276002 0.954
-0.138843 0.076949 0.954
-0.138843 0.078621998 0.954
-0.138843 0.080294997 0.954
-0.138843 0.081967004 0.954
-0.138697 0.083553001 0.95300001
-0.138697 0.085224003 0.95300001
-0.138697 0.086894996 0.95300001
-0.138697 0.088565998 0.95300001
-0.138552 0.090141997 0.95200002
-0.13840599 0.091715001 0.95099998
-0.13826101 0.093284003 0.94999999
-0.13826101 0.094949998 0.94999999
-0.13404 0.096896 0.921
-0.13404 0.098511003 0.921
-0.13404 0.100126 0.921
-0.13404 0.101741 0.921
-0.13404 0.103356 0.921
-0.13404 0.104971 0.921
-0.13404 0.106586 0.921
-0.13404 0.108201 0.921
-0.13404 0.109816 0.921
-0.133894 0.11131 0.92000002
-0.133894 0.112923 0.92000002
-0.133894 0.114536 0.92000002
-0.133894 0.116149 0.92000002
-0.133894 0.117763 0.92000002
-0.13404 0.119506 0.921
-0.13404 0.12112 0.921
-0.13404 0.122735 0.921
-0.134186 0.124485 0.92199999
-0.13549501 0.127333 0.93099999
-0.13549501 0.12896501 0.93099999
-0.13535 0.130458 0.93000001
-0.13535 0.13208801 0.93000001
-0.13535 0.133719 0.93000001
-0.13549501 0.13549501 0.93099999
-0.13549501 0.137128 0.93099999
-0.13549501 0.13876 0.93099999
-0.13564099 0.140544 0.93199998
-0.135786 0.14233001 0.93300003
-0.135932 0.14412101 0.93400002
-0.136078 0.145914 0.935
-0.135932 0.147396 0.93400002
-0.136078 0.149193 0.935
-0.136078 0.150833 0.935
-0.136078 0.152472 0.935
-0.136078 0.154112 0.935
-0.136223 0.155918 0.93599999
-0.136223 0.15755901 0.93599999
-0.136369 0.159371 0.93699998
-0.136369 0.16101401 0.93699998
-0.13840599 0.165087 0.95099998
-0.13840599 0.16675401 0.95099998
-0.138552 0.16859899 0.95200002
-0.138552 0.170268 0.95200002
-0.138552 0.171938 0.95200002
-0.138697 0.17378899 0.95300001
-0.138697 0.17546 0.95300001
-0.138697 0.177131 0.95300001
-0.138697 0.178802 0.95300001
-0.138697 0.180473 0.95300001
-0.138552 0.181953 0.95200002
-0.138552 0.183623 0.95200002
-0.138552 0.18529201 0.95200002
-0.13840599 0.186765 0.95099998
-0.138552 0.188631 0.95200002
-0.13840599 0.1901 0.95099998
-0.138552 0.19196901 0.95200002
-0.13840599 0.193435 0.95099998
-0.138552 0.195308 0.95200002
-0.138552 0.196977 0.95200002
-0.138552 0.19864599 0.95200002
-0.138552 0.200316 0.95200002
-0.138552 0.201985 0.95200002
-0.138552 0.20365401 0.95200002
-0.138552 0.20532399 0.95200002
-0.138552 0.206993 0.95200002
-0.138552 0.208662 0.95200002
-0.138552 0.21033099 0.95200002
-0.138552 0.212001 0.95200002
-0.13840599 0.21344601 0.95099998
-0.13840599 0.215113 0.95099998
-0.13840599 0.21678101 0.95099998
-0.13840599 0.218448 0.95099998
-0.13826101 0.21988399 0.94999999
-0.13826101 0.22155 0.94999999
-0.13826101 0.223216 0.94999999
-0.138115 0.224645 0.949
-0.137969 0.22607 0.94800001
-0.13753299 0.22701199 0.94499999
-0.137242 0.228185 0.94300002
-0.136951 0.229351 0.94099998
-0.136805 0.230756 0.94
-0.136805 0.23240399 0.94
-0.13665999 0.233803 0.93900001
-0.13651399 0.235199 0.93800002
-0.136369 0.236591 0.93699998
-0.136369 0.238234 0.93699998
-0.136223 0.239621 0.93599999
-0.136223 0.241262 0.93599999
-0.136078 0.242644 0.935
-0.136078 0.244284 0.935
-0.135932 0.24566001 0.93400002
-0.135932 0.247298 0.93400002
-0.135932 0.248936 0.93400002
-0.135932 0.25057301 0.93400002
-0.135932 0.252211 0.93400002
-0.136078 0.25412101 0.935
-0.136223 0.25603399 0.93599999
-0.136078 0.25740001 0.935
-0.136078 0.25903901 0.935
-0.135932 0.2604 0.93400002
-0.13564099 0.26147601 0.93199998
-0.13549501 0.26282799 0.93099999
-0.13535 0.26417699 0.93000001
-0.135204 0.265522 0.92900002
-0.135059 0.26686299 0.92799997
-0.134913 0.26820099 0.92699999
-0.13462199 0.26924399 0.92500001
-0.134477 0.27057299 0.92400002
-0.134331 0.27189901 0.92299998
-0.134186 0.27322099 0.92199999
-0.13404 0.27454001 0.921
-0.133894 0.275855 0.92000002
-0.13374899 0.27716601 0.91900003
-0.133458 0.278171 0.917
-0.133458 0.27977899 0.917
-0.133312 0.28108001 0.91600001
-0.133312 0.282686 0.91600001
-0.133167 0.28398201 0.91500002
-0.133021 0.285274 0.91399997
-0.133021 0.28687701 0.91399997
-0.133021 0.28848001 0.91399997
-0.13287599 0.289765 0.91299999
-0.13287599 0.29136601 0.91299999
-0.13287599 0.29296699 0.91299999
-0.13287599 0.294568 0.91299999
-0.13287599 0.29616901 0.91299999
-0.13287599 0.29776999 0.91299999
-0.13273001 0.299043 0.912
-0.13273001 0.30064201 0.912
-0.13273001 0.302241 0.912
-0.13273001 0.30384001 0.912
-0.13273001 0.305439 0.912
-0.13273001 0.30703801 0.912
-0.13273001 0.30863801 0.912
-0.13273001 0.31023699 0.912
-0.13273001 0.311836 0.912
-0.13273001 0.31343499 0.912
-0.13273001 0.315034 0.912
-0.13273001 0.31663299 0.912
-0.13273001 0.31823301 0.912
-0.13273001 0.319832 0.912
-0.13273001 0.32143101 0.912
-0.13273001 0.32302999 0.912
-0.13273001 0.32462901 0.912
-0.132585 0.32587099 0.91100001
-0.13273001 0.32782701 0.912
-0.13273001 0.329427 0.912
-0.13273001 0.33102599 0.912
-0.13273001 0.332625 0.912
-0.13273001 0.33422399 0.912
-0.13273001 0.335823 0.912
-0.13273001 0.33742201 0.912
-0.13273001 0.33902201 0.912
-0.13273001 0.34062099 0.912
-0.13273001 0.34222001 0.912
-0.13273001 0.34381899 0.912
-0.13273001 0.34541801 0.912
-0.13273001 0.34701699 0.912
-0.13273001 0.34861699 0.912
-0.13273001 0.350216 0.912
-0.13273001 0.35181499 0.912
-0.13273001 0.353414 0.912
-0.13273001 0.35501301 0.912
-0.13273001 0.356612 0.912
-0.13273001 0.35821101 0.912
-0.13273001 0.35981101 0.912
-0.13273001 0.36140999 0.912
-0.13273001 0.36300901 0.912
-0.13273001 0.36460799 0.912
-0.13273001 0.366207 0.912
-0.13273001 0.36780599 0.912
-0.13273001 0.36940601 0.912
-0.13273001 0.371005 0.912
-0.13287599 0.37301201 0.91299999
-0.13287599 0.37461299 0.91299999
-0.13287599 0.376214 0.91299999
-0.13287599 0.37781501 0.91299999
-0.13287599 0.37941599 0.91299999
-0.13287599 0.381017 0.91299999
-0.13287599 0.38261801 0.91299999
-0.13273001 0.383798 0.912
-0.13273001 0.38539699 0.912
-0.13287599 0.38742101 0.91299999
-0.13273001 0.38859501 0.912
-0.13273001 0.39019501 0.912
-0.13273001 0.391794 0.912
-0.13273001 0.39339301 0.912
-0.13273001 0.39499199 0.912
-0.13273001 0.39659101 0.912
-0.13273001 0.39818999 0.912
-0.13273001 0.39978999 0.912
-0.13273001 0.401389 0.912
-0.13273001 0.40298799 0.912
-0.13273001 0.404587 0.912
-0.13273001 0.40618601 0.912
-0.13273001 0.407785 0.912
-0.13273001 0.409385 0.912
-0.13273001 0.41098401 0.912
-0.13273001 0.41258299 0.912
-0.13273001 0.41418201 0.912
-0.13273001 0.41578099 0.912
-0.13273001 0.41738001 0.912
-0.13287599 0.41943899 0.91299999
-0.13287599 0.42104 0.91299999
-0.13273001 0.422178 0.912
-0.13273001 0.42377701 0.912
-0.13273001 0.425376 0.912
-0.13287599 0.427443 0.91299999
-0.13287599 0.42904401 0.91299999
-0.13273001 0.43017399 0.912
-0.13273001 0.43177301 0.912
-0.13273001 0.43337199 0.912
-0.13273001 0.434971 0.912
-0.13273001 0.43656999 0.912
-0.13273001 0.438169 0.912
-0.13273001 0.439769 0.912
-0.13273001 0.44136801 0.912
-0.13273001 0.442967 0.912
-0.13273001 0.44456601 0.912
-0.13273001 0.446165 0.912
-0.13273001 0.44776401 0.912
-0.13273001 0.44936299 0.912
-0.13273001 0.45096299 0.912
-0.13287599 0.453058 0.91299999
-0.13273001 0.45416099 0.912
-0.13273001 0.45576 0.912
-0.13273001 0.45735899 0.912
-0.13273001 0.458958 0.912
-0.13287599 0.461063 0.91299999
-0.13273001 0.46215701 0.912
-0.13273001 0.463756 0.912
-0.13273001 0.46535501 0.912
-0.13273001 0.46695399 0.912
-0.13287599 0.46906701 0.91299999
-0.13273001 0.470153 0.912
-0.13273001 0.47175199 0.912
-0.13273001 0.473351 0.912
-0.13273001 0.47494999 0.912
-0.13273001 0.476549 0.912
-0.13273001 0.47814801 0.912
-0.13273001 0.47974801 0.912
-0.132585 0.48081899 0.91100001
-0.132585 0.482416 0.91100001
-0.13273001 0.48454499 0.912
-0.132585 0.48561099 0.91100001
-0.13273001 0.48774299 0.912
-0.13273001 0.489342 0.912
-0.132585 0.490403 0.91100001
-0.13273001 0.49254099 0.912
-0.13273001 0.49414 0.912
-0.13273001 0.49573901 0.912
-0.132585 0.496793 0.91100001
-0.137457 0 0.95599997
-0.13731401 0.0016749999 0.95499998
-0.13731401 0.0033489999 0.95499998
-0.13731401 0.0050240001 0.95499998
-0.13731401 0.0066979998 0.95499998
-0.137457 0.008382 0.95599997
-0.137457 0.010058 0.95599997
-0.137457 0.011734 0.95599997
-0.137457 0.01341 0.95599997
-0.134726 0.014787 0.93699998
-0.13486899 0.016447 0.93800002
-0.13486899 0.018092001 0.93800002
-0.134726 0.019716 0.93699998
-0.134726 0.021359 0.93699998
-0.134726 0.023002001 0.93699998
-0.134726 0.024645001 0.93699998
-0.134726 0.026288001 0.93699998
-0.134726 0.027930999 0.93699998
-0.134726 0.029573999 0.93699998
-0.134726 0.031217 0.93699998
-0.134726 0.03286 0.93699998
-0.134582 0.034465998 0.93599999
-0.13443799 0.036068998 0.935
-0.134294 0.037668001 0.93400002
-0.13443799 0.039347999 0.935
-0.13070001 0.049410999 0.90899998
-0.13070001 0.051004998 0.90899998
-0.130843 0.052655999 0.91000003
-0.130843 0.054251999 0.91000003
-0.130843 0.055847999 0.91000003
-0.130843 0.057443 0.91000003
-0.130843 0.059039 0.91000003
-0.130843 0.060635 0.91000003
-0.130987 0.062298998 0.91100001
-0.13731401 0.066982001 0.95499998
-0.13717 0.068585001 0.954
-0.13717 0.070257999 0.954
-0.137026 0.071855001 0.95300001
-0.13717 0.073602997 0.954
-0.137026 0.075196996 0.95300001
-0.137026 0.076867998 0.95300001
-0.137026 0.078538999 0.95300001
-0.137026 0.08021 0.95300001
-0.13717 0.081967004 0.954
-0.137026 0.083553001 0.95300001
-0.137026 0.085224003 0.95300001
-0.137026 0.086894996 0.95300001
-0.137026 0.088565998 0.95300001
-0.13688201 0.090141997 0.95200002
-0.13688201 0.091811001 0.95200002
-0.13688201 0.093480997 0.95200002
-0.13688201 0.095150001 0.95200002
-0.132425 0.096896 0.921
-0.132425 0.098511003 0.921
-0.132425 0.100126 0.921
-0.132425 0.101741 0.921
-0.132425 0.103356 0.921
-0.132425 0.104971 0.921
-0.132425 0.106586 0.921
-0.132425 0.108201 0.921
-0.132425 0.109816 0.921
-0.132425 0.111431 0.921
-0.132425 0.113046 0.921
-0.13228101 0.114536 0.92000002
-0.13228101 0.116149 0.92000002
-0.132425 0.117891 0.921
-0.132425 0.119506 0.921
-0.132425 0.12112 0.921
-0.132425 0.122735 0.921
-0.132713 0.12462 0.92299998
-0.132713 0.126239 0.92299998
-0.132713 0.127857 0.92299998
-0.133719 0.130458 0.93000001
-0.133719 0.13208801 0.93000001
-0.133719 0.133719 0.93000001
-0.133719 0.13535 0.93000001
-0.133719 0.136981 0.93000001
-0.133863 0.13876 0.93099999
-0.133863 0.140393 0.93099999
-0.13400701 0.142178 0.93199998
-0.13415 0.143966 0.93300003
-0.134294 0.145758 0.93400002
-0.134294 0.147396 0.93400002
-0.13443799 0.149193 0.935
-0.13443799 0.150833 0.935
-0.134582 0.15263499 0.93599999
-0.134582 0.154277 0.93599999
-0.134582 0.155918 0.93599999
-0.134726 0.157728 0.93699998
-0.134726 0.159371 0.93699998
-0.134726 0.16101401 0.93699998
-0.136595 0.164913 0.94999999
-0.136595 0.16657899 0.94999999
-0.136739 0.168422 0.95099998
-0.13688201 0.170268 0.95200002
-0.13688201 0.171938 0.95200002
-0.13688201 0.17360701 0.95200002
-0.13688201 0.175276 0.95200002
-0.13688201 0.176945 0.95200002
-0.137026 0.178802 0.95300001
-0.137026 0.180473 0.95300001
-0.13688201 0.181953 0.95200002
-0.13688201 0.183623 0.95200002
-0.13688201 0.18529201 0.95200002
-0.13688201 0.186961 0.95200002
-0.13688201 0.188631 0.95200002
-0.13688201 0.1903 0.95200002
-0.136739 0.19176701 0.95099998
-0.136739 0.193435 0.95099998
-0.136739 0.195103 0.95099998
-0.136739 0.19677 0.95099998
-0.13688201 0.19864599 0.95200002
-0.13688201 0.200316 0.95200002
-0.13688201 0.201985 0.95200002
-0.13688201 0.20365401 0.95200002
-0.13688201 0.20532399 0.95200002
-0.13688201 0.206993 0.95200002
-0.136739 0.208443 0.95099998
-0.136739 0.21010999 0.95099998
-0.136739 0.211778 0.95099998
-0.136595 0.213221 0.94999999
-0.136595 0.21488699 0.94999999
-0.136595 0.216553 0.94999999
-0.136595 0.218218 0.94999999
-0.136595 0.21988399 0.94999999
-0.136595 0.22155 0.94999999
-0.13645101 0.22298101 0.949
-0.13645101 0.224645 0.949
-0.136307 0.22607 0.94800001
-0.13602 0.22725201 0.94599998
-0.13602 0.228911 0.94599998
-0.13530099 0.229351 0.94099998
-0.135157 0.230756 0.94
-0.135013 0.23215701 0.93900001
-0.135013 0.233803 0.93900001
-0.13486899 0.235199 0.93800002
-0.134726 0.236591 0.93699998
-0.134726 0.238234 0.93699998
-0.134582 0.239621 0.93599999
-0.13443799 0.241005 0.935
-0.13443799 0.242644 0.935
-0.13443799 0.244284 0.935
-0.134294 0.24566001 0.93400002
-0.134294 0.247298 0.93400002
-0.134294 0.248936 0.93400002
-0.134294 0.25057301 0.93400002
-0.134294 0.252211 0.93400002
-0.13443799 0.25412101 0.935
-0.13443799 0.25576001 0.935
-0.134294 0.25712401 0.93400002
-0.134294 0.258762 0.93400002
-0.13415 0.26012099 0.93300003
-0.13400701 0.26147601 0.93199998
-0.133863 0.26282799 0.93099999
-0.133719 0.26417699 0.93000001
-0.13357501 0.265522 0.92900002
-0.133432 0.26686299 0.92799997
-0.133288 0.26820099 0.92699999
-0.133 0.26924399 0.92500001
-0.132856 0.27057299 0.92400002
-0.132713 0.27189901 0.92299998
-0.132569 0.27322099 0.92199999
-0.132425 0.27454001 0.921
-0.13228101 0.275855 0.92000002
-0.132137 0.27716601 0.91900003
-0.13199399 0.278474 0.91799998
-0.13185 0.27977899 0.917
-0.13185 0.281387 0.917
-0.131706 0.282686 0.91600001
-0.13156199 0.28398201 0.91500002
-0.13156199 0.28558701 0.91500002
-0.131419 0.28687701 0.91399997
-0.131419 0.28848001 0.91399997
-0.131275 0.289765 0.91299999
-0.131275 0.29136601 0.91299999
-0.131275 0.29296699 0.91299999
-0.131275 0.294568 0.91299999
-0.131275 0.29616901 0.91299999
-0.131275 0.29776999 0.91299999
-0.13113099 0.299043 0.912
-0.13113099 0.30064201 0.912
-0.13113099 0.302241 0.912
-0.13113099 0.30384001 0.912
-0.13113099 0.305439 0.912
-0.13113099 0.30703801 0.912
-0.13113099 0.30863801 0.912
-0.13113099 0.31023699 0.912
-0.13113099 0.311836 0.912
-0.13113099 0.31343499 0.912
-0.13113099 0.315034 0.912
-0.13113099 0.31663299 0.912
-0.13113099 0.31823301 0.912
-0.13113099 0.319832 0.912
-0.13113099 0.32143101 0.912
-0.13113099 0.32302999 0.912
-0.13113099 0.32462901 0.912
-0.130987 0.32587099 0.91100001
-0.13113099 0.32782701 0.912
-0.13113099 0.329427 0.912
-0.13113099 0.33102599 0.912
-0.13113099 0.332625 0.912
-0.13113099 0.33422399 0.912
-0.13113099 0.335823 0.912
-0.13113099 0.33742201 0.912
-0.13113099 0.33902201 0.912
-0.13113099 0.34062099 0.912
-0.13113099 0.34222001 0.912
-0.13113099 0.34381899 0.912
-0.13113099 0.34541801 0.912
-0.13113099 0.34701699 0.912
-0.13113099 0.34861699 0.912
-0.13113099 0.350216 0.912
-0.13113099 0.35181499 0.912
-0.13113099 0.353414 0.912
-0.13113099 0.35501301 0.912
-0.13113099 0.356612 0.912
-0.13113099 0.35821101 0.912
-0.13113099 0.35981101 0.912
-0.13113099 0.36140999 0.912
-0.13113099 0.36300901 0.912
-0.13113099 0.36460799 0.912
-0.13113099 0.366207 0.912
-0.13113099 0.36780599 0.912
-0.13113099 0.36940601 0.912
-0.131275 0.37141201 0.91299999
-0.131275 0.37301201 0.91299999
-0.131275 0.37461299 0.91299999
-0.131275 0.376214 0.91299999
-0.131275 0.37781501 0.91299999
-0.131275 0.37941599 0.91299999
-0.131275 0.381017 0.91299999
-0.131275 0.38261801 0.91299999
-0.131275 0.38421899 0.91299999
-0.131275 0.38582 0.91299999
-0.131275 0.38742101 0.91299999
-0.131275 0.38902199 0.91299999
-0.131275 0.39062199 0.91299999
-0.13113099 0.391794 0.912
-0.13113099 0.39339301 0.912
-0.13113099 0.39499199 0.912
-0.13113099 0.39659101 0.912
-0.13113099 0.39818999 0.912
-0.13113099 0.39978999 0.912
-0.13113099 0.401389 0.912
-0.131275 0.40343001 0.91299999
-0.13113099 0.404587 0.912
-0.13113099 0.40618601 0.912
-0.13113099 0.407785 0.912
-0.13113099 0.409385 0.912
-0.13113099 0.41098401 0.912
-0.13113099 0.41258299 0.912
-0.13113099 0.41418201 0.912
-0.13113099 0.41578099 0.912
-0.13113099 0.41738001 0.912
-0.13113099 0.41897899 0.912
-0.131275 0.42104 0.91299999
-0.131275 0.42264101 0.91299999
-0.13113099 0.42377701 0.912
-0.13113099 0.425376 0.912
-0.131275 0.427443 0.91299999
-0.131275 0.42904401 0.91299999
-0.131275 0.43064499 0.91299999
-0.13113099 0.43177301 0.912
-0.13113099 0.43337199 0.912
-0.13113099 0.434971 0.912
-0.13113099 0.43656999 0.912
-0.13113099 0.438169 0.912
-0.13113099 0.439769 0.912
-0.13113099 0.44136801 0.912
-0.13113099 0.442967 0.912
-0.13113099 0.44456601 0.912
-0.13113099 0.446165 0.912
-0.13113099 0.44776401 0.912
-0.13113099 0.44936299 0.912
-0.13113099 0.45096299 0.912
-0.13113099 0.452562 0.912
-0.13113099 0.45416099 0.912
-0.13113099 0.45576 0.912
-0.13113099 0.45735899 0.912
-0.13113099 0.458958 0.912
-0.131275 0.461063 0.91299999
-0.13113099 0.46215701 0.912
-0.13113099 0.463756 0.912
-0.13113099 0.46535501 0.912
-0.13113099 0.46695399 0.912
-0.131275 0.46906701 0.91299999
-0.13113099 0.470153 0.912
-0.13113099 0.47175199 0.912
-0.13113099 0.473351 0.912
-0.13113099 0.47494999 0.912
-0.13113099 0.476549 0.912
-0.13113099 0.47814801 0.912
-0.13113099 0.47974801 0.912
-0.13113099 0.48134699 0.912
-0.13113099 0.48294601 0.912
-0.13113099 0.48454499 0.912
-0.13113099 0.48614401 0.912
-0.13113099 0.48774299 0.912
-0.13113099 0.489342 0.912
-0.13113099 0.490942 0.912
-0.13113099 0.49254099 0.912
-0.13113099 0.49414 0.912
-0.13113099 0.49573901 0.912
-0.13113099 0.497338 0.912
-0.135639 0 0.95499998
-0.135497 0.001673 0.954
-0.135497 0.0033460001 0.954
-0.135497 0.005018 0.954
-0.135497 0.006691 0.954
-0.135497 0.0083640004 0.954
-0.135497 0.010037 0.954
-0.135497 0.01171 0.954
-0.13322499 0.013158 0.93800002
-0.13322499 0.014803 0.93800002
-0.13322499 0.016447 0.93800002
-0.13322499 0.018092001 0.93800002
-0.133083 0.019716 0.93699998
-0.133083 0.021359 0.93699998
-0.133083 0.023002001 0.93699998
-0.133083 0.024645001 0.93699998
-0.133083 0.026288001 0.93699998
-0.133083 0.027930999 0.93699998
-0.13294099 0.029541999 0.93599999
-0.13294099 0.031184001 0.93599999
-0.133083 0.03286 0.93699998
-0.13294099 0.034465998 0.93599999
-0.132799 0.036068998 0.935
-0.132799 0.037707999 0.935
-0.132799 0.039347999 0.935
-0.129106 0.051004998 0.90899998
-0.129106 0.052599002 0.90899998
-0.12924799 0.054251999 0.91000003
-0.12924799 0.055847999 0.91000003
-0.12924799 0.057443 0.91000003
-0.12924799 0.059039 0.91000003
-0.12939 0.060701001 0.91100001
-0.12939 0.062298998 0.91100001
-0.135639 0.066982001 0.95499998
-0.135497 0.068585001 0.954
-0.135497 0.070257999 0.954
-0.135355 0.071855001 0.95300001
-0.135355 0.073526002 0.95300001
-0.135355 0.075196996 0.95300001
-0.135355 0.076867998 0.95300001
-0.135355 0.078538999 0.95300001
-0.135355 0.08021 0.95300001
-0.135355 0.081881002 0.95300001
-0.135355 0.083553001 0.95300001
-0.135355 0.085224003 0.95300001
-0.135355 0.086894996 0.95300001
-0.135213 0.088473 0.95200002
-0.135213 0.090141997 0.95200002
-0.135213 0.091811001 0.95200002
-0.135213 0.093480997 0.95200002
-0.130952 0.097002 0.92199999
-0.13080999 0.098511003 0.921
-0.13080999 0.100126 0.921
-0.13080999 0.101741 0.921
-0.13080999 0.103356 0.921
-0.13080999 0.104971 0.921
-0.13080999 0.106586 0.921
-0.13080999 0.108201 0.921
-0.13080999 0.109816 0.921
-0.13080999 0.111431 0.921
-0.13080999 0.113046 0.921
-0.13080999 0.114661 0.921
-0.13080999 0.116276 0.921
-0.13080999 0.117891 0.921
-0.13080999 0.119506 0.921
-0.13080999 0.12112 0.921
-0.13080999 0.122735 0.921
-0.13109399 0.12462 0.92299998
-0.13109399 0.126239 0.92299998
-0.131946 0.12868799 0.92900002
-0.13208801 0.130458 0.93000001
-0.13208801 0.13208801 0.93000001
-0.13208801 0.133719 0.93000001
-0.13208801 0.13535 0.93000001
-0.13223 0.137128 0.93099999
-0.13223 0.13876 0.93099999
-0.13223 0.140393 0.93099999
-0.13237201 0.142178 0.93199998
-0.132514 0.143966 0.93300003
-0.132514 0.145602 0.93300003
-0.13265599 0.147396 0.93400002
-0.13265599 0.14903399 0.93400002
-0.132799 0.150833 0.935
-0.13294099 0.15263499 0.93599999
-0.13294099 0.154277 0.93599999
-0.13294099 0.155918 0.93599999
-0.13294099 0.15755901 0.93599999
-0.13450301 0.161071 0.94700003
-0.134645 0.16290399 0.94800001
-0.134645 0.164566 0.94800001
-0.134929 0.16657899 0.94999999
-0.13507099 0.168422 0.95099998
-0.135213 0.170268 0.95200002
-0.13507099 0.171757 0.95099998
-0.135213 0.17360701 0.95200002
-0.135213 0.175276 0.95200002
-0.135213 0.176945 0.95200002
-0.135213 0.178615 0.95200002
-0.135355 0.180473 0.95300001
-0.135213 0.181953 0.95200002
-0.135213 0.183623 0.95200002
-0.135213 0.18529201 0.95200002
-0.135213 0.186961 0.95200002
-0.135213 0.188631 0.95200002
-0.13507099 0.1901 0.95099998
-0.13507099 0.19176701 0.95099998
-0.134929 0.193232 0.94999999
-0.134929 0.194897 0.94999999
-0.134929 0.19656301 0.94999999
-0.13507099 0.198438 0.95099998
-0.13507099 0.200105 0.95099998
-0.13507099 0.201773 0.95099998
-0.13507099 0.20344 0.95099998
-0.13507099 0.205108 0.95099998
-0.13507099 0.20677499 0.95099998
-0.13507099 0.208443 0.95099998
-0.134929 0.20988999 0.94999999
-0.134929 0.211555 0.94999999
-0.134929 0.213221 0.94999999
-0.13478699 0.214661 0.949
-0.13478699 0.216325 0.949
-0.13478699 0.217989 0.949
-0.13478699 0.219653 0.949
-0.13478699 0.22131699 0.949
-0.13478699 0.22298101 0.949
-0.13478699 0.224645 0.949
-0.134645 0.22607 0.94800001
-0.13450301 0.227493 0.94700003
-0.133793 0.227943 0.94199997
-0.133651 0.229351 0.94099998
-0.133509 0.230756 0.94
-0.133367 0.23215701 0.93900001
-0.133367 0.233803 0.93900001
-0.13322499 0.235199 0.93800002
-0.133083 0.236591 0.93699998
-0.13294099 0.23797999 0.93599999
-0.13294099 0.239621 0.93599999
-0.132799 0.241005 0.935
-0.132799 0.242644 0.935
-0.13265599 0.244022 0.93400002
-0.13265599 0.24566001 0.93400002
-0.132799 0.247563 0.935
-0.13265599 0.248936 0.93400002
-0.13265599 0.25057301 0.93400002
-0.13265599 0.252211 0.93400002
-0.13265599 0.253849 0.93400002
-0.13265599 0.25548699 0.93400002
-0.13265599 0.25712401 0.93400002
-0.13265599 0.258762 0.93400002
-0.132514 0.26012099 0.93300003
-0.13237201 0.26147601 0.93199998
-0.13223 0.26282799 0.93099999
-0.13208801 0.26417699 0.93000001
-0.131946 0.265522 0.92900002
-0.131804 0.26686299 0.92799997
-0.13152 0.267912 0.926
-0.131378 0.26924399 0.92500001
-0.131236 0.27057299 0.92400002
-0.130952 0.271604 0.92199999
-0.130952 0.27322099 0.92199999
-0.13080999 0.27454001 0.921
-0.130668 0.275855 0.92000002
-0.13052601 0.27716601 0.91900003
-0.130384 0.278474 0.91799998
-0.130242 0.27977899 0.917
-0.130242 0.281387 0.917
-0.1301 0.282686 0.91600001
-0.129958 0.28398201 0.91500002
-0.129958 0.28558701 0.91500002
-0.129958 0.287191 0.91500002
-0.129816 0.28848001 0.91399997
-0.129674 0.289765 0.91299999
-0.129674 0.29136601 0.91299999
-0.129674 0.29296699 0.91299999
-0.129674 0.294568 0.91299999
-0.129674 0.29616901 0.91299999
-0.129674 0.29776999 0.91299999
-0.12953199 0.299043 0.912
-0.12953199 0.30064201 0.912
-0.12953199 0.302241 0.912
-0.12953199 0.30384001 0.912
-0.129674 0.305774 0.91299999
-0.12953199 0.30703801 0.912
-0.12953199 0.30863801 0.912
-0.12953199 0.31023699 0.912
-0.12953199 0.311836 0.912
-0.12953199 0.31343499 0.912
-0.12953199 0.315034 0.912
-0.12953199 0.31663299 0.912
-0.12953199 0.31823301 0.912
-0.12953199 0.319832 0.912
-0.12953199 0.32143101 0.912
-0.12953199 0.32302999 0.912
-0.12953199 0.32462901 0.912
-0.12939 0.32587099 0.91100001
-0.12953199 0.32782701 0.912
-0.12953199 0.329427 0.912
-0.12953199 0.33102599 0.912
-0.12953199 0.332625 0.912
-0.12953199 0.33422399 0.912
-0.12953199 0.335823 0.912
-0.12953199 0.33742201 0.912
-0.12953199 0.33902201 0.912
-0.12953199 0.34062099 0.912
-0.12953199 0.34222001 0.912
-0.12953199 0.34381899 0.912
-0.12953199 0.34541801 0.912
-0.12953199 0.34701699 0.912
-0.12953199 0.34861699 0.912
-0.12953199 0.350216 0.912
-0.12953199 0.35181499 0.912
-0.12953199 0.353414 0.912
-0.12953199 0.35501301 0.912
-0.12953199 0.356612 0.912
-0.12953199 0.35821101 0.912
-0.12953199 0.35981101 0.912
-0.12953199 0.36140999 0.912
-0.12953199 0.36300901 0.912
-0.12953199 0.36460799 0.912
-0.12953199 0.366207 0.912
-0.12953199 0.36780599 0.912
-0.12953199 0.36940601 0.912
-0.129674 0.37141201 0.91299999
-0.129674 0.37301201 0.91299999
-0.129674 0.37461299 0.91299999
-0.129674 0.376214 0.91299999
-0.129674 0.37781501 0.91299999
-0.129674 0.37941599 0.91299999
-0.129674 0.381017 0.91299999
-0.129674 0.38261801 0.91299999
-0.129674 0.38421899 0.91299999
-0.129674 0.38582 0.91299999
-0.129674 0.38742101 0.91299999
-0.129674 0.38902199 0.91299999
-0.129674 0.39062199 0.91299999
-0.12953199 0.391794 0.912
-0.12953199 0.39339301 0.912
-0.12953199 0.39499199 0.912
-0.129674 0.397026 0.91299999
-0.12953199 0.39818999 0.912
-0.129674 0.40022799 0.91299999
-0.129674 0.401829 0.91299999
-0.129674 0.40343001 0.91299999
-0.129674 0.405031 0.91299999
-0.129674 0.40663201 0.91299999
-0.129674 0.40823299 0.91299999
-0.12953199 0.409385 0.912
-0.12953199 0.41098401 0.912
-0.12953199 0.41258299 0.912
-0.12953199 0.41418201 0.912
-0.12953199 0.41578099 0.912
-0.129674 0.41783801 0.91299999
-0.129674 0.41943899 0.91299999
-0.129674 0.42104 0.91299999
-0.129674 0.42264101 0.91299999
-0.12953199 0.42377701 0.912
-0.129674 0.425843 0.91299999
-0.129674 0.427443 0.91299999
-0.129674 0.42904401 0.91299999
-0.12953199 0.43017399 0.912
-0.12953199 0.43177301 0.912
-0.12953199 0.43337199 0.912
-0.12953199 0.434971 0.912
-0.129674 0.437049 0.91299999
-0.12953199 0.438169 0.912
-0.12953199 0.439769 0.912
-0.129674 0.441852 0.91299999
-0.12953199 0.442967 0.912
-0.129674 0.44505301 0.91299999
-0.12953199 0.446165 0.912
-0.12953199 0.44776401 0.912
-0.129674 0.44985601 0.91299999
-0.129674 0.45145699 0.91299999
-0.129674 0.453058 0.91299999
-0.12953199 0.45416099 0.912
-0.12953199 0.45576 0.912
-0.129674 0.45786101 0.91299999
-0.129674 0.45946199 0.91299999
-0.129674 0.461063 0.91299999
-0.129674 0.46266401 0.91299999
-0.129674 0.46426401 0.91299999
-0.129674 0.46586499 0.91299999
-0.12953199 0.46695399 0.912
-0.129674 0.46906701 0.91299999
-0.12953199 0.470153 0.912
-0.12953199 0.47175199 0.912
-0.12953199 0.473351 0.912
-0.12953199 0.47494999 0.912
-0.12953199 0.476549 0.912
-0.12953199 0.47814801 0.912
-0.12953199 0.47974801 0.912
-0.12953199 0.48134699 0.912
-0.12953199 0.48294601 0.912
-0.12953199 0.48454499 0.912
-0.12953199 0.48614401 0.912
-0.12953199 0.48774299 0.912
-0.12953199 0.489342 0.912
-0.12953199 0.490942 0.912
-0.12953199 0.49254099 0.912
-0.12953199 0.49414 0.912
-0.12953199 0.49573901 0.912
-0.12953199 0.497338 0.912
-0.133965 0 0.95499998
-0.13382401 0.001673 0.954
-0.13382401 0.0033460001 0.954
-0.13368399 0.0050130002 0.95300001
-0.13368399 0.0066840001 0.95300001
-0.13382401 0.0083640004 0.954
-0.13382401 0.010037 0.954
-0.13382401 0.01171 0.954
-0.13158 0.013158 0.93800002
-0.13158 0.014803 0.93800002
-0.13158 0.016447 0.93800002
-0.13158 0.018092001 0.93800002
-0.13144 0.019716 0.93699998
-0.13144 0.021359 0.93699998
-0.13144 0.023002001 0.93699998
-0.13144 0.024645001 0.93699998
-0.13144 0.026288001 0.93699998
-0.13144 0.027930999 0.93699998
-0.131299 0.029541999 0.93599999
-0.13144 0.031217 0.93699998
-0.13144 0.03286 0.93699998
-0.131299 0.034465998 0.93599999
-0.13115899 0.036068998 0.935
-0.13115899 0.037707999 0.935
-0.13115899 0.039347999 0.935
-0.127652 0.051061001 0.91000003
-0.127652 0.052655999 0.91000003
-0.127933 0.054370999 0.912
-0.127933 0.055971 0.912
-0.127933 0.057569999 0.912
-0.13059799 0.060401998 0.93099999
-0.13059799 0.062034 0.93099999
-0.13059799 0.063666001 0.93099999
-0.13059799 0.065298997 0.93099999
-0.13382401 0.068585001 0.954
-0.13368399 0.070184 0.95300001
-0.13368399 0.071855001 0.95300001
-0.13368399 0.073526002 0.95300001
-0.13368399 0.075196996 0.95300001
-0.13368399 0.076867998 0.95300001
-0.13368399 0.078538999 0.95300001
-0.133544 0.080126002 0.95200002
-0.13368399 0.081881002 0.95300001
-0.13368399 0.083553001 0.95300001
-0.13368399 0.085224003 0.95300001
-0.13368399 0.086894996 0.95300001
-0.133544 0.088473 0.95200002
-0.133544 0.090141997 0.95200002
-0.133544 0.091811001 0.95200002
-0.129335 0.093768001 0.92199999
-0.129195 0.096896 0.921
-0.129195 0.098511003 0.921
-0.129195 0.100126 0.921
-0.129195 0.101741 0.921
-0.129195 0.103356 0.921
-0.129195 0.104971 0.921
-0.129195 0.106586 0.921
-0.129195 0.108201 0.921
-0.129195 0.109816 0.921
-0.129195 0.111431 0.921
-0.129195 0.113046 0.921
-0.129195 0.114661 0.921
-0.129195 0.116276 0.921
-0.129195 0.117891 0.921
-0.129195 0.119506 0.921
-0.129195 0.12112 0.921
-0.129335 0.122869 0.92199999
-0.129476 0.12462 0.92299998
-0.13003699 0.12678599 0.92699999
-0.130317 0.12868799 0.92900002
-0.130458 0.130458 0.93000001
-0.130458 0.13208801 0.93000001
-0.130458 0.133719 0.93000001
-0.130458 0.13535 0.93000001
-0.130458 0.136981 0.93000001
-0.13059799 0.13876 0.93099999
-0.13059799 0.140393 0.93099999
-0.13073801 0.142178 0.93199998
-0.13073801 0.143812 0.93199998
-0.130878 0.145602 0.93300003
-0.131019 0.147396 0.93400002
-0.131019 0.14903399 0.93400002
-0.13115899 0.150833 0.935
-0.131299 0.15263499 0.93599999
-0.13144 0.154442 0.93699998
-0.13144 0.156085 0.93699998
-0.13144 0.157728 0.93699998
-0.132842 0.161071 0.94700003
-0.132842 0.16273201 0.94700003
-0.132983 0.164566 0.94800001
-0.133123 0.16640399 0.949
-0.13326301 0.168245 0.94999999
-0.133403 0.17008901 0.95099998
-0.133403 0.171757 0.95099998
-0.133403 0.173425 0.95099998
-0.133403 0.175092 0.95099998
-0.133544 0.176945 0.95200002
-0.133544 0.178615 0.95200002
-0.133544 0.18028399 0.95200002
-0.133544 0.181953 0.95200002
-0.133544 0.183623 0.95200002
-0.133544 0.18529201 0.95200002
-0.133403 0.186765 0.95099998
-0.133403 0.18843199 0.95099998
-0.133403 0.1901 0.95099998
-0.133403 0.19176701 0.95099998
-0.13326301 0.193232 0.94999999
-0.13326301 0.194897 0.94999999
-0.133123 0.196356 0.949
-0.13326301 0.198229 0.94999999
-0.13326301 0.19989499 0.94999999
-0.13326301 0.201561 0.94999999
-0.13326301 0.203226 0.94999999
-0.13326301 0.20489199 0.94999999
-0.13326301 0.206558 0.94999999
-0.13326301 0.208224 0.94999999
-0.13326301 0.20988999 0.94999999
-0.133123 0.21133301 0.949
-0.133123 0.212997 0.949
-0.133123 0.214661 0.949
-0.133123 0.216325 0.949
-0.133123 0.217989 0.949
-0.133123 0.219653 0.949
-0.133123 0.22131699 0.949
-0.133123 0.22298101 0.949
-0.133123 0.224645 0.949
-0.132983 0.22607 0.94800001
-0.13270199 0.22725201 0.94599998
-0.13228101 0.228185 0.94300002
-0.132001 0.229351 0.94099998
-0.13172001 0.23051 0.93900001
-0.13158 0.23191001 0.93800002
-0.13158 0.23355401 0.93800002
-0.13144 0.23494799 0.93699998
-0.13144 0.236591 0.93699998
-0.131299 0.23797999 0.93599999
-0.131299 0.239621 0.93599999
-0.13115899 0.241005 0.935
-0.13115899 0.242644 0.935
-0.13115899 0.244284 0.935
-0.131019 0.24566001 0.93400002
-0.13115899 0.247563 0.935
-0.131019 0.248936 0.93400002
-0.131019 0.25057301 0.93400002
-0.131019 0.252211 0.93400002
-0.13115899 0.25412101 0.935
-0.13115899 0.25576001 0.935
-0.131019 0.25712401 0.93400002
-0.131019 0.258762 0.93400002
-0.130878 0.26012099 0.93300003
-0.13059799 0.26119599 0.93099999
-0.13059799 0.26282799 0.93099999
-0.130458 0.26417699 0.93000001
-0.130317 0.265522 0.92900002
-0.13003699 0.26657501 0.92699999
-0.129897 0.267912 0.926
-0.129756 0.26924399 0.92500001
-0.12961601 0.27057299 0.92400002
-0.129476 0.27189901 0.92299998
-0.129335 0.27322099 0.92199999
-0.129195 0.27454001 0.921
-0.12905499 0.275855 0.92000002
-0.12905499 0.277468 0.92000002
-0.128915 0.27877799 0.91900003
-0.128774 0.28008401 0.91799998
-0.12863401 0.281387 0.917
-0.12849399 0.282686 0.91600001
-0.12849399 0.28429201 0.91600001
-0.128353 0.28558701 0.91500002
-0.128353 0.287191 0.91500002
-0.128213 0.28848001 0.91399997
-0.128213 0.29008201 0.91399997
-0.12807301 0.29136601 0.91299999
-0.12807301 0.29296699 0.91299999
-0.12807301 0.294568 0.91299999
-0.12807301 0.29616901 0.91299999
-0.12807301 0.29776999 0.91299999
-0.12807301 0.299371 0.91299999
-0.12807301 0.300971 0.91299999
-0.12807301 0.30257201 0.91299999
-0.127933 0.30384001 0.912
-0.12807301 0.305774 0.91299999
-0.127933 0.30703801 0.912
-0.127933 0.30863801 0.912
-0.127933 0.31023699 0.912
-0.127933 0.311836 0.912
-0.127933 0.31343499 0.912
-0.127933 0.315034 0.912
-0.127933 0.31663299 0.912
-0.127933 0.31823301 0.912
-0.127933 0.319832 0.912
-0.127933 0.32143101 0.912
-0.127933 0.32302999 0.912
-0.127933 0.32462901 0.912
-0.127792 0.32587099 0.91100001
-0.127933 0.32782701 0.912
-0.127933 0.329427 0.912
-0.127933 0.33102599 0.912
-0.127933 0.332625 0.912
-0.127933 0.33422399 0.912
-0.127933 0.335823 0.912
-0.127933 0.33742201 0.912
-0.127933 0.33902201 0.912
-0.127933 0.34062099 0.912
-0.127933 0.34222001 0.912
-0.127933 0.34381899 0.912
-0.127933 0.34541801 0.912
-0.127933 0.34701699 0.912
-0.127933 0.34861699 0.912
-0.127933 0.350216 0.912
-0.127933 0.35181499 0.912
-0.127933 0.353414 0.912
-0.127933 0.35501301 0.912
-0.127933 0.356612 0.912
-0.127933 0.35821101 0.912
-0.127933 0.35981101 0.912
