# .PCD v0.7 - Point Cloud Data file format
VERSION 0.7
FIELDS x y z rgba
SIZE 4 4 4 4
TYPE F F F U
COUNT 1 1 1 1
WIDTH 1108
HEIGHT 1
VIEWPOINT 0 0 0 1 0 0 0
POINTS 1108
DATA ascii
0.023378633 -0.31110561 0.91725117 13553616
0.043962147 -0.31096104 0.91599566 13158599
0.063629761 -0.31093845 0.9151141 13422029
0.083796926 -0.31023735 0.91407138 13685457
0.10403718 -0.31007549 0.91351891 13487821
0.12389839 -0.31071812 0.91310054 13685200
0.14390513 -0.31034586 0.91253859 13553356
0.16495414 -0.30968183 0.91138947 13619150
0.18368688 -0.3110429 0.91130304 13750735
0.20345737 -0.31064093 0.90950942 13750735
0.22475813 -0.31063971 0.90937132 13619149
0.24409114 -0.31017923 0.90853804 13487563
0.2634742 -0.31124479 0.90749985 13619149
0.28464586 -0.31099397 0.90849108 13816526
0.30314744 -0.31114215 0.90654504 13684939
-0.27607933 -0.29920512 0.92533541 13026750
-0.25599557 -0.29770765 0.92440659 13092543
-0.23608974 -0.29855171 0.92444265 13289924
-0.21645913 -0.29894492 0.92392564 13290181
-0.19667748 -0.29900724 0.92261553 13290182
-0.17652455 -0.29966351 0.92240292 12500664
-0.15638733 -0.30093545 0.92146343 12566715
-0.13625681 -0.30147326 0.92049009 13027011
-0.11638021 -0.3003808 0.919819 13224648
-0.096311353 -0.29988828 0.92020303 13421771
-0.076223686 -0.30056149 0.91862905 13093062
-0.056237713 -0.30029622 0.91697872 12961733
-0.036577776 -0.30136457 0.91664332 13093065
-0.016325444 -0.30050936 0.9153868 13290442
0.0033643739 -0.30096284 0.91604865 13356492
0.024334777 -0.29917294 0.91535395 13487821
0.043546557 -0.29875618 0.91403985 13224905
0.062993996 -0.29876438 0.91335034 13553358
0.083827019 -0.30005771 0.91318935 13487819
0.10345881 -0.29973122 0.91202289 13422027
0.12333552 -0.29926038 0.91213286 13684943
0.14425974 -0.30047899 0.90941423 13750480
0.16322874 -0.29874763 0.90837872 13684686
0.18368036 -0.29925969 0.90952766 13750992
0.20418803 -0.29783642 0.90750074 13619150
0.22180586 -0.29918912 0.90800107 13684686
0.2442788 -0.29825157 0.90673661 13422026
0.26326969 -0.29805025 0.90774292 13618893
0.28362975 -0.29922163 0.90495694 13684941
0.30346897 -0.29896507 0.90458429 13685195
-0.28024235 -0.28534606 0.92457688 13224129
-0.24163277 -0.28529769 0.92396128 13026751
-0.21961346 -0.28565708 0.92330891 13092803
-0.0029210681 -0.33978456 0.92312741 13553354
0.061323807 -0.33951619 0.92224938 12960708
0.089877076 -0.33939692 0.92185915 13685455
0.10758212 -0.33986467 0.92119551 13093069
0.12358227 -0.33980379 0.92097211 13685966
0.14415728 -0.33928764 0.92102599 13619151
0.163908 -0.33955935 0.91903162 13816528
0.18467745 -0.33931404 0.91927278 13948115
0.20445882 -0.33776295 0.91713649 14013906
0.22444686 -0.33951718 0.91753668 13619147
0.24448761 -0.33913967 0.91650975 13487819
0.26406437 -0.34026301 0.91538572 13816528
0.28347543 -0.3391504 0.91379851 13816269
0.30370921 -0.33764172 0.9133625 13750734
-0.27531627 -0.32464555 0.93351889 12894909
-0.25526285 -0.32466811 0.93225068 13092543
-0.2356818 -0.32567647 0.93138254 13158596
-0.21611324 -0.32609642 0.9312157 13224391
-0.19628391 -0.32426456 0.93008274 13422024
-0.17600787 -0.32473806 0.9286716 13092804
-0.15576935 -0.32561886 0.92828727 12763838
-0.13595572 -0.32528728 0.92702234 13092804
-0.11591128 -0.32518655 0.9267025 13224392
-0.095614269 -0.32587343 0.92614776 13487820
-0.076222993 -0.32572722 0.9260841 13421771
-0.056460008 -0.32622874 0.9235962 13356234
-0.036198046 -0.32685536 0.92287636 13356493
-0.015961604 -0.32643449 0.92203122 13553872
0.0041031875 -0.32570767 0.92265356 13619408
0.023785172 -0.3255704 0.92255235 13487822
0.044010777 -0.32595581 0.92106968 13422285
0.064260088 -0.32738519 0.92011213 13356235
0.083981782 -0.32626596 0.91814697 13553869
0.1039657 -0.32673591 0.9183141 13553614
0.12389012 -0.32760808 0.91872579 13553614
0.1436246 -0.32681844 0.9169004 13684942
0.16324843 -0.32617873 0.91607678 13619405
0.18413019 -0.32760614 0.91560674 13685199
0.20424238 -0.3264401 0.91255045 13882321
0.22353694 -0.32644272 0.91322023 13750736
0.24419045 -0.32663929 0.91338801 13553098
0.2642363 -0.32734859 0.91133457 13684685
0.28320581 -0.32638514 0.9114477 13882319
0.3042337 -0.32617009 0.90935373 13685196
-0.27635834 -0.31389889 0.92838037 12631736
-0.25596082 -0.31226969 0.92934459 12697786
-0.23703417 -0.31300548 0.92946076 13158596
-0.21891683 -0.31355438 0.9280346 13158338
-0.19178179 -0.31277707 0.92789555 13355975
-0.17573033 -0.31312317 0.92646384 12764096
-0.16056712 -0.31298056 0.92613155 12632248
-0.14465344 -0.31208894 0.92554253 13420998
0.21399839 -0.36809054 0.92403489 14144982
0.22539602 -0.36744022 0.92174846 13750222
0.24315849 -0.3682766 0.92261004 13750735
0.26454121 -0.36838275 0.92171556 13881806
0.28496554 -0.36704147 0.92092609 13816271
0.30210769 -0.36736697 0.92221284 13882063
-0.27580529 -0.35406259 0.94090486 12763319
-0.25572982 -0.35400391 0.9396916 12829373
-0.23573112 -0.35366523 0.93983418 13355205
-0.21596129 -0.3546055 0.93954813 13289926
-0.19534531 -0.3533954 0.93773681 13487562
-0.17599848 -0.35313976 0.93697786 12961474
-0.15468213 -0.35393256 0.93501365 12829632
-0.1359508 -0.35299474 0.93415892 13027011
-0.11578616 -0.35233492 0.93370634 13355977
-0.095339067 -0.35238892 0.9321959 13290185
-0.075628027 -0.35231858 0.93157375 13224392
-0.055424709 -0.35364512 0.93126619 13224647
-0.03550148 -0.35291868 0.93020296 13159112
-0.01562874 -0.35230303 0.92942363 13553616
0.0039592264 -0.35302138 0.92921323 13619408
0.024357695 -0.35287023 0.9303425 13487821
0.044118837 -0.35274756 0.92889369 13487820
0.063968748 -0.35057643 0.92633766 13290185
0.084127009 -0.35204083 0.92593843 13685201
0.10417064 -0.3536689 0.92610729 13882322
0.12407844 -0.35372946 0.92479217 13618894
0.14413829 -0.35360372 0.9248786 13685200
0.16399407 -0.35465789 0.92427051 13882066
0.18424073 -0.35416567 0.92288941 14145494
0.2042262 -0.35422647 0.92147225 14013908
0.22395703 -0.35372877 0.91977137 13882321
0.24423543 -0.3550458 0.92110145 13750736
0.26349404 -0.35572648 0.91949666 13750477
0.28421688 -0.35487464 0.91905111 13553096
0.30416369 -0.35507426 0.91981107 13684940
-0.27617559 -0.34082326 0.93758917 12631991
-0.25667155 -0.34121364 0.93775791 13026751
-0.23549211 -0.34267575 0.93665862 13355460
-0.21538483 -0.34336925 0.93725866 13355720
-0.19654141 -0.34088352 0.93542349 13355976
-0.1761141 -0.34193116 0.93509883 13027010
-0.15641823 -0.34125218 0.93174142 12566460
-0.13578981 -0.34132826 0.93140566 13092804
-0.11484894 -0.34103322 0.93197078 13224391
-0.099122815 -0.34027055 0.93020707 13422026
-0.076494381 -0.34054521 0.9303093 13290184
-0.055676311 -0.34044713 0.92875516 13224648
-0.034332041 -0.34026229 0.92798412 13290440
-0.013682162 -0.34057358 0.92776513 13554383
0.0079339407 -0.34031194 0.92837763 13619152
0.023902059 -0.33968836 0.92789769 13553869
0.042433526 -0.33936018 0.927203 13553870
0.065825984 -0.33917248 0.92624331 12828608
0.29161936 -0.39417309 0.92649543 13881804
0.29984021 -0.3939364 0.9259069 13815754
-0.24325496 -0.38172364 0.94523877 13290179
-0.21177892 -0.38055253 0.94382256 13223876
-0.19657677 -0.38087046 0.94416273 13421769
-0.17702916 -0.38002104 0.94330913 13487050
-0.15312338 -0.38071901 0.94316494 12961216
-0.13542424 -0.37958831 0.94073701 13092546
-0.11570438 -0.37880918 0.93920147 13026501
-0.095621437 -0.37975949 0.94022036 12960960
-0.075512171 -0.379071 0.93826979 13092806
-0.055823386 -0.37908947 0.93824226 12895426
-0.035344385 -0.37954539 0.93759108 12763841
-0.015385375 -0.38025278 0.93720531 13356235
0.0031053117 -0.37980783 0.93747109 13685200
0.024991358 -0.37859985 0.93626714 13750994
0.04488714 -0.37953758 0.93534338 13619151
0.064216465 -0.37941444 0.93558669 13619408
0.085115135 -0.37791312 0.9336313 13816786
0.1040894 -0.37851328 0.93278205 13947859
0.12426627 -0.37824392 0.93259215 13816530
0.14443025 -0.37885481 0.93180984 13487564
0.16451669 -0.37927836 0.92996699 13947857
0.18424839 -0.37960774 0.92938375 14013651
0.20403215 -0.37989858 0.92894113 14013394
0.22336034 -0.38126117 0.92718762 13816272
0.24465582 -0.38163471 0.927356 13750735
0.26410761 -0.3824864 0.92636842 13947857
0.28437674 -0.38202038 0.92525011 13881808
0.30461037 -0.38085455 0.92535037 13881806
-0.27515754 -0.36925578 0.94583762 12828860
-0.25515532 -0.36967468 0.94585145 13092545
-0.23580386 -0.3696872 0.94492984 13289927
-0.21585719 -0.37014946 0.94466585 13223877
-0.19608542 -0.37015319 0.94273138 13421771
-0.17543703 -0.3690227 0.94148231 13027012
-0.15653819 -0.37102962 0.94072276 12829374
-0.13557529 -0.36917433 0.93926311 12960962
-0.11544713 -0.36810011 0.9382599 13289929
-0.095763028 -0.36915529 0.9378413 13158599
-0.076240227 -0.36815715 0.93636763 13092549
-0.056375828 -0.36886257 0.93483537 12961477
-0.036738768 -0.36886203 0.93444586 13026755
-0.016220193 -0.36899403 0.93469346 13355980
0.0048726909 -0.36874369 0.93368995 13488079
0.023885153 -0.36779508 0.93301654 13553614
0.04478915 -0.36834973 0.93273318 13553358
0.064373396 -0.36802757 0.933465 13487308
0.084181756 -0.36769569 0.93080235 13816531
0.10218167 -0.36740226 0.93026537 14079189
0.1260429 -0.36765328 0.9296661 13487052
0.14472014 -0.36809105 0.92900908 13619410
0.16526161 -0.36776453 0.92891592 14079445
0.17624179 -0.36795938 0.92857826 14145235
0.19820526 -0.36786762 0.92827809 14145237
-0.12778325 -0.4085142 0.94777513 13290444
-0.11892194 -0.40847719 0.94765401 13487306
-0.097401604 -0.4083873 0.94735986 13289673
-0.066070527 -0.40825644 0.94693166 13289928
-0.058158625 -0.40822339 0.94682354 13289671
-0.033790007 -0.40812159 0.94649047 13093063
-0.016567439 -0.40793109 0.94539666 13422030
0.0035522487 -0.40731615 0.94395077 13750480
0.025973855 -0.40861484 0.94306707 13816531
0.043918408 -0.40866053 0.94251889 14013653
0.06399855 -0.40808773 0.94486237 13948117
0.086699717 -0.40777496 0.94252771 14211030
0.1051007 -0.40731367 0.93987036 14145495
0.12448812 -0.40659171 0.93882453 14145239
0.14477462 -0.40863371 0.93809044 13750737
0.16476232 -0.40617514 0.9371534 14079186
0.18488026 -0.40681946 0.93767548 13882063
0.20518893 -0.40590471 0.93814158 13881807
0.22504243 -0.40760022 0.93477774 13816014
0.24424782 -0.40584975 0.93265504 13947602
0.2647872 -0.40744531 0.9346599 13947600
0.28438401 -0.40718216 0.93216538 13816012
0.3044802 -0.40749741 0.93181455 13618633
-0.2751385 -0.39433831 0.95233381 12960704
-0.25530738 -0.39404491 0.95130366 13158338
-0.23510616 -0.39345554 0.94974875 13224130
-0.21557915 -0.39364448 0.94983041 13355718
-0.19539006 -0.39396709 0.94844735 13158597
-0.17532638 -0.39332727 0.94716692 12960962
-0.15525758 -0.39469039 0.94707566 13092805
-0.13534942 -0.39490801 0.94547987 13224389
-0.11549826 -0.39550918 0.94465798 13290184
-0.095590696 -0.3959617 0.94510961 13224135
-0.07544449 -0.39547378 0.94357866 13158600
-0.055678841 -0.39551595 0.94291055 12895426
-0.03540276 -0.39613563 0.94226903 12895426
-0.015797244 -0.39618242 0.9407829 13487566
0.0050111488 -0.39508361 0.94149554 13619149
0.024621561 -0.39548224 0.941603 13816786
0.04440124 -0.39617735 0.93980306 13882323
0.064959228 -0.3961755 0.94075227 13948116
0.084015086 -0.39520845 0.93935674 14079702
0.1051212 -0.39461434 0.93707782 14079701
0.12464014 -0.39425129 0.9367547 13947860
0.1439651 -0.3953658 0.93693733 13684943
0.16277474 -0.39471382 0.93476439 13947858
0.1831623 -0.39536947 0.93383896 13881809
0.2041439 -0.3954547 0.93319964 13816271
0.22476509 -0.39481953 0.93193066 13947857
0.244021 -0.39426142 0.93116981 13881808
0.26375681 -0.39490625 0.93099868 13881552
0.28042975 -0.39460835 0.93081909 13881809
0.3107177 -0.39457095 0.92966497 13750222
-0.27833271 -0.38112432 0.95010114 12960449
-0.25985363 -0.38089985 0.94996327 12960959
-0.23017474 -0.38048142 0.94978714 13290183
-0.031934198 -0.43635932 0.94982243 13422029
-0.024911538 -0.43613893 0.94987524 13552335
0.030291401 -0.43590835 0.94912076 13619925
0.036102235 -0.43588406 0.94904131 13815759
0.060314052 -0.43578294 0.94871044 13948376
0.083170004 -0.43568748 0.94839805 14079442
0.10719246 -0.43679351 0.94617975 14013654
0.1247803 -0.43664253 0.94577026 14013140
0.13911784 -0.43558413 0.94550383 13816271
0.1649957 -0.4362191 0.9465996 14079186
0.18672538 -0.43571132 0.94479644 14144725
0.20503959 -0.43590674 0.94360232 14079186
0.22484133 -0.4357968 0.94232064 14079443
0.24496113 -0.4353613 0.94170451 13881552
0.26465335 -0.43555319 0.94091982 13881807
0.28512523 -0.43608224 0.94019258 13816012
0.30493328 -0.43484569 0.93798721 13881807
-0.27439803 -0.42055029 0.95774895 12829115
-0.25452557 -0.4216277 0.95764476 12960701
-0.23505321 -0.42229271 0.95722526 13026753
-0.21551511 -0.4213075 0.95624286 13091775
-0.19536473 -0.421018 0.95525742 13026497
-0.17513682 -0.42107451 0.9543643 13421512
-0.15480375 -0.42068776 0.95405161 12894910
-0.13491224 -0.42141312 0.95275748 13092804
-0.11477561 -0.42189676 0.95217359 13355465
-0.095414735 -0.42155075 0.95134151 13290184
-0.075151622 -0.42164907 0.95140433 13421771
-0.054968052 -0.42105991 0.94942647 13421771
-0.035248909 -0.42182374 0.94831115 13355722
-0.014999829 -0.42209774 0.94786215 13553358
0.0048713833 -0.42212844 0.94871116 13816530
0.024369609 -0.42327493 0.94777519 13750992
0.044800241 -0.42419076 0.9488374 13882321
0.064723559 -0.42211887 0.94753337 14145238
0.084087886 -0.4226239 0.94692761 14277080
0.10441131 -0.42415488 0.94602907 14145494
0.12454873 -0.42371655 0.9448061 14145494
0.14397945 -0.42479271 0.94370854 13684428
0.16485366 -0.42475384 0.94527644 13881806
0.18457888 -0.42443568 0.94417596 13816272
0.20463243 -0.42184913 0.94210804 13881807
0.22362532 -0.42364442 0.94023311 13618635
0.24515122 -0.42300943 0.93984628 13816013
0.26480517 -0.42322651 0.9385972 13816270
0.28433636 -0.42363819 0.93751287 13816012
0.30374083 -0.42320088 0.93664324 13552840
0.31456646 -0.41991752 0.93521422 13159887
-0.28526545 -0.40589079 0.9562847 12828861
-0.27536145 -0.40967226 0.95570791 13092288
-0.25518504 -0.40936592 0.95491374 12763068
-0.23566434 -0.40974933 0.95572883 12763583
-0.21531072 -0.40900075 0.95468652 13026497
-0.194617 -0.40906358 0.95363879 13158341
-0.17561944 -0.40907064 0.95360148 13289669
-0.15745501 -0.40921456 0.9526208 12829635
-0.13732059 -0.40920359 0.95120209 13092549
-0.11159804 -0.40967417 0.95040047 13553355
-0.091409616 -0.40958983 0.95012456 13552844
-0.077254228 -0.40906829 0.95029116 13355722
-0.051985066 -0.40942517 0.94958574 13092551
-0.044366803 -0.40939334 0.94948161 13092038
0.064512596 -0.40868807 0.94818854 13882580
0.14657792 -0.46515504 0.95226586 14342102
0.19308081 -0.46496081 0.95163023 14342358
0.20396447 -0.46491534 0.95148152 14144979
0.21979143 -0.46543479 0.95080924 14342869
0.24782887 -0.46473211 0.95088202 13684687
0.26372656 -0.46492249 0.95017195 14013651
0.28572756 -0.465195 0.94843769 13815754
0.30467176 -0.46568835 0.94856209 14013136
-0.27501667 -0.45128229 0.96769607 13158081
-0.25470895 -0.45101511 0.96691185 13026495
-0.23441622 -0.44936833 0.96399826 13158339
-0.2144759 -0.44958743 0.96314031 13223617
-0.19484723 -0.44931012 0.96338767 13289412
-0.17336011 -0.45081297 0.96314281 13552845
-0.15503374 -0.45044029 0.96088469 13092548
-0.13518053 -0.45029122 0.96087337 13355463
-0.11492249 -0.45008653 0.95904124 13421514
-0.095425434 -0.45056736 0.95947999 13553357
-0.074667417 -0.44980764 0.95851493 13750480
-0.054969989 -0.4509654 0.9569453 13816273
-0.035204425 -0.45064735 0.95624006 13816530
-0.014185126 -0.44923139 0.95541161 13882324
0.0046241758 -0.44968694 0.95676214 13948115
0.024831796 -0.44960248 0.95647073 13816273
0.0443203 -0.44897574 0.95607257 13355723
0.065019295 -0.44800904 0.95525295 14079446
0.08496996 -0.44892555 0.95336574 14013652
0.10436727 -0.45196658 0.95276332 14276823
0.12537691 -0.45229632 0.95242929 14013653
0.14566815 -0.45086777 0.95126122 14145237
0.16466238 -0.45103562 0.95122981 14210773
0.18447241 -0.45099288 0.94957048 14342359
0.20492199 -0.45312309 0.94989991 14276823
0.22476201 -0.45304102 0.94813287 14144979
0.2446952 -0.45277041 0.94739664 13881551
0.26512417 -0.45319352 0.94742459 13881806
0.2840316 -0.453098 0.94580853 14079187
0.30499706 -0.45321736 0.94528377 14013650
-0.27565151 -0.43873471 0.96589434 12960446
-0.25547922 -0.43777865 0.96198452 12960704
-0.23551065 -0.43679044 0.95984745 13092291
-0.21546133 -0.43648988 0.96023619 12960960
-0.19481803 -0.43693316 0.96032149 13223876
-0.17560513 -0.43790454 0.96051764 13487048
-0.15564728 -0.4361437 0.9588964 13026498
-0.13524044 -0.43689817 0.95763749 13421257
-0.11767568 -0.43639925 0.95615387 13355978
-0.094067015 -0.43737245 0.95660359 13421769
-0.074885912 -0.43695113 0.95625126 13750479
-0.055987794 -0.43710151 0.95551407 13553100
-0.044401705 -0.43597358 0.95413625 13553614
-0.016556926 -0.4358573 0.95375568 13421519
0.00790805 -0.43727314 0.95428675 14013650
0.017784534 -0.43712336 0.95408988 13882064
0.048199765 -0.43686816 0.95360112 13816270
0.28917983 -0.49215806 0.9529103 14276308
0.30419192 -0.49023002 0.9513557 14144978
-0.27291149 -0.47860491 0.97297347 13092034
-0.2545695 -0.47751379 0.97066104 12829115
-0.23443228 -0.47803801 0.971623 13157824
-0.21452358 -0.47772497 0.97128803 13289414
-0.19077571 -0.4774828 0.96966898 13355465
-0.17404175 -0.47706985 0.96760184 13750220
-0.1576438 -0.47718388 0.96832728 12960962
-0.13327456 -0.47730821 0.9672544 13355978
-0.1162816 -0.47688729 0.96626568 13553357
-0.094800852 -0.47757918 0.96587741 13750736
-0.074834354 -0.47643137 0.96637499 13750738
-0.055491395 -0.47577512 0.9656359 14013910
-0.035281777 -0.47677326 0.96506679 14013910
-0.014423761 -0.47593322 0.96351272 14145238
0.0055775791 -0.47529334 0.96406049 13882323
0.024786748 -0.47739896 0.96358699 13750736
0.04447592 -0.47696954 0.96285629 13816530
0.066117868 -0.47682673 0.96403056 14013650
0.084950007 -0.47795767 0.96242613 13816528
0.10532229 -0.47623965 0.96054006 14013649
0.12563352 -0.47569713 0.95990276 14079446
0.14534357 -0.47699565 0.95881617 14276823
0.1657718 -0.47637472 0.95795393 14342616
0.18492989 -0.47688222 0.95683753 14342359
0.2056333 -0.47716954 0.95661765 14276567
0.22594263 -0.47755885 0.95463252 14276822
0.24471524 -0.47779515 0.95500588 14144723
0.26524323 -0.47827962 0.95427787 13947858
0.28475517 -0.48031592 0.95305783 14078929
0.30463383 -0.47834867 0.94967943 13947600
-0.27463603 -0.46649396 0.97047549 13092291
-0.25472206 -0.4664588 0.97031212 12960958
-0.23510933 -0.46701193 0.96996874 13092288
-0.21480022 -0.46692312 0.9686839 13289669
-0.19506334 -0.46646816 0.96922743 13487047
-0.17537637 -0.46549192 0.96662998 13684687
-0.15463196 -0.46712875 0.96586788 13092547
-0.13558646 -0.46575126 0.96440446 13223878
-0.11482164 -0.46660566 0.96343577 13421769
-0.093787037 -0.46588275 0.96286374 13618892
-0.075867712 -0.46554232 0.9636299 13684942
-0.053604566 -0.4664591 0.96107239 13947861
-0.03373757 -0.46682489 0.96086109 13948117
-0.01808035 -0.46549481 0.96073878 14211546
0.0056707431 -0.46502298 0.96094513 13948114
0.025099147 -0.46553835 0.96049678 13816271
0.045442499 -0.46550003 0.96076989 13947857
0.064474538 -0.46540904 0.96086067 13948113
0.085167743 -0.4660162 0.95984584 13882322
0.10434326 -0.46511021 0.95681769 14211029
0.12341709 -0.46503055 0.95655698 14145750
0.13609621 -0.46497762 0.95638376 14012886
0.16784917 -0.46484494 0.95594972 14210775
0.17942576 -0.46479666 0.95579159 14474202
-0.15295556 -0.50657159 0.97451818 13224649
-0.12626496 -0.50646007 0.9741534 14079442
-0.11420419 -0.50661224 0.97383088 13948372
-0.087807581 -0.50592518 0.97290522 14210776
-0.075228766 -0.50525707 0.97264218 14342874
-0.056376472 -0.50508034 0.97207338 14211289
-0.031423237 -0.50601071 0.97183114 13685459
-0.014131675 -0.50503254 0.97123283 14211542
-0.001876412 -0.50515223 0.96947604 14079445
0.026692748 -0.50582117 0.97206289 13881810
0.047199577 -0.50529909 0.97148871 14079701
0.064926535 -0.50501972 0.9693464 14013909
0.084715359 -0.50566101 0.97014922 14144982
0.10489714 -0.50564176 0.97087938 13816528
0.12640826 -0.50448006 0.96801049 13816014
0.14505172 -0.50435764 0.96715713 14144978
0.16657218 -0.50390291 0.96669906 14079699
0.18469037 -0.50421828 0.96467555 14342615
0.20541406 -0.50443834 0.96393311 14276823
0.22579326 -0.50448155 0.96313477 14210773
0.24517922 -0.50373513 0.96020067 14144979
0.26483962 -0.50358456 0.96068001 13750480
0.28522971 -0.5029726 0.95923877 14276822
0.30580127 -0.50585437 0.95943719 14144978
-0.27434996 -0.49267802 0.97714365 13289669
-0.25478557 -0.49222741 0.97675455 13158081
-0.23438455 -0.49243063 0.97654182 12960446
-0.21481314 -0.49161708 0.97435617 13026240
-0.19511874 -0.492167 0.97408336 13158080
-0.17476898 -0.49370012 0.97310394 13684686
-0.153992 -0.49310982 0.97282398 13224390
-0.13517524 -0.49337715 0.97212207 13487562
-0.11385916 -0.49311811 0.97091079 13750736
-0.094512343 -0.49425769 0.97090226 13882067
-0.074136078 -0.49289143 0.97094256 14211289
-0.054521762 -0.49179608 0.9693464 14211288
-0.035303138 -0.49294689 0.9693886 14211288
-0.015265882 -0.49278498 0.96856314 14211288
0.0052791033 -0.49212816 0.96879852 13948116
0.025650211 -0.49457562 0.96869284 13816786
0.046212211 -0.49376151 0.96815133 13882579
0.06517908 -0.49131119 0.96718252 13882321
0.085640781 -0.49525809 0.96807927 14013907
0.1047686 -0.49504259 0.96699369 13882063
0.12431332 -0.49235487 0.96477807 13816012
0.14460297 -0.49317399 0.96271336 13684943
0.16423133 -0.4925501 0.96232414 14144981
0.18690623 -0.49264023 0.9610675 14408410
0.20533572 -0.49287826 0.96149993 14144981
0.22313045 -0.49379513 0.96099192 14276565
0.24805075 -0.49138999 0.95800656 14078933
0.26500374 -0.49180692 0.95793831 13947602
0.2795696 -0.49200252 0.9569965 14276566
0.0019760681 -0.53346324 0.97630811 14736607
0.11490168 -0.53299159 0.9747647 14672090
0.1286798 -0.53298652 0.97349846 14276825
0.14588431 -0.53314555 0.9735353 14408667
0.16653749 -0.53303027 0.97291011 14145236
0.18574356 -0.53279203 0.97182024 14145492
0.20744534 -0.53256971 0.97037888 14408153
0.22349702 -0.53273517 0.97059172 14473947
0.24538259 -0.53237218 0.96872437 14474459
0.2659077 -0.53199232 0.96846902 14473946
0.28467897 -0.53202713 0.96902138 14144979
0.30686554 -0.53303242 0.96779269 14211028
-0.27396891 -0.51932484 0.98451805 13552843
-0.25464168 -0.51940233 0.98389727 13487307
-0.23416595 -0.51950032 0.98222566 13158338
-0.2143756 -0.51948845 0.9821806 13158083
-0.19416629 -0.51859021 0.98109925 13553098
-0.17455459 -0.51877558 0.9810738 14079444
-0.15453991 -0.52007538 0.97903377 13553358
-0.13494566 -0.51946646 0.97902846 13882323
-0.1143045 -0.51819956 0.97903436 14013908
-0.094890654 -0.51890445 0.97869557 14079446
-0.074943922 -0.51964676 0.97911865 14211288
-0.053681485 -0.51913238 0.97788918 14277081
-0.03466193 -0.52013814 0.97655964 14342875
-0.014709593 -0.51977241 0.97604012 14211546
0.005539285 -0.51976305 0.97642857 14013908
0.02575063 -0.51845807 0.97639799 13750994
0.04518633 -0.51805097 0.97426122 14013909
0.065682046 -0.52108592 0.97581655 14079702
0.085463598 -0.5189079 0.97315884 14079443
0.10577068 -0.51791978 0.97180891 14145493
0.12509477 -0.52008593 0.9718796 13882321
0.14552452 -0.52025634 0.97180831 14277079
0.1651265 -0.52029645 0.97145677 14079442
0.18529773 -0.521065 0.96953297 14276824
0.20488335 -0.52002454 0.96814835 14276823
0.22588745 -0.52104509 0.96822298 14342357
0.24523066 -0.5207184 0.96630096 14145237
0.26591748 -0.51909053 0.96383512 14342874
0.28510073 -0.51951742 0.96523756 14079184
0.3039389 -0.52167374 0.96486044 14144980
-0.27443105 -0.50735104 0.98210913 13487304
-0.25254709 -0.50724381 0.98252434 13158081
-0.23713644 -0.50675589 0.98061562 13026495
-0.21513589 -0.50661469 0.97933936 13026236
-0.19763577 -0.50654161 0.97910023 13158337
-0.17550325 -0.5064491 0.97879755 14146008
-0.1338118 -0.50627494 0.97822779 13883093
0.0041303206 -0.50569874 0.9763425 14080218
0.27714112 -0.55950928 0.97418725 14276567
0.31327459 -0.55935836 0.97369343 14014161
-0.27423832 -0.54610521 0.99268514 13947859
-0.25329316 -0.54580903 0.99066061 13684939
-0.23322187 -0.54509103 0.98884082 13158340
-0.21464729 -0.54628348 0.98969042 13224132
-0.19356149 -0.54569709 0.98830813 13684429
-0.17451169 -0.54473817 0.98765022 14277079
-0.15480669 -0.54503751 0.98789787 13355977
-0.13383809 -0.5452109 0.98595732 13685198
-0.11440028 -0.5449239 0.98720777 14014164
-0.093697421 -0.54456884 0.9861722 14079703
-0.074805237 -0.54392111 0.98452407 14145494
-0.05433483 -0.54469848 0.98474467 14408668
-0.034022413 -0.54478413 0.98414451 14540511
-0.014216224 -0.5453186 0.98364997 14737890
0.0049973978 -0.54385209 0.98348695 14540254
0.024547622 -0.543145 0.98486513 14145749
0.046211094 -0.54370648 0.98364615 14079958
0.06559559 -0.54432863 0.9829123 14277080
0.085546091 -0.54365677 0.98119348 14145493
0.10647164 -0.5443126 0.98033577 14342873
0.12512155 -0.54477775 0.97981632 14079701
0.1458877 -0.54465675 0.97816002 14474458
0.16601461 -0.54552275 0.97792703 14276823
0.18578364 -0.54571182 0.97593188 14211027
0.20558931 -0.54604864 0.97469616 14474460
0.2261997 -0.5466851 0.97450888 14606045
0.24541166 -0.54824126 0.97397041 14539994
0.26601765 -0.54825312 0.97346777 14342615
0.28599462 -0.54802799 0.97251165 14211030
0.30511704 -0.54835188 0.97187048 14144979
-0.2755557 -0.53538108 0.98831624 13816272
-0.25443822 -0.53473961 0.98747486 13487561
-0.23484835 -0.53494698 0.98665428 13290181
-0.21393792 -0.53581601 0.98690391 13224132
-0.19617076 -0.53451258 0.98630744 13619151
-0.1754594 -0.53371406 0.98545229 14408155
-0.15503798 -0.53491628 0.98463184 13422030
-0.13334894 -0.53427881 0.98372412 13882581
-0.11556851 -0.53324586 0.98494411 14276825
-0.094134152 -0.53406304 0.98420084 14342875
-0.073313713 -0.53326583 0.98366964 14276825
-0.056929644 -0.53333724 0.98318565 14211032
-0.034735609 -0.53390384 0.98165625 14408412
-0.014796699 -0.53382057 0.98138374 14605791
0.0093540289 -0.53444618 0.98238921 14408666
0.027216468 -0.53406668 0.98220164 14079958
0.04803123 -0.53363484 0.98184806 13948119
0.063130572 -0.53344989 0.98119885 14145239
0.086183935 -0.53337842 0.98039967 14079701
0.10293694 -0.53436667 0.98168254 14276824
0.31283751 -0.58751613 0.97966129 14145747
-0.27464971 -0.57537532 0.99905479 14145496
-0.25424156 -0.57459062 0.99690616 14013907
-0.23281881 -0.57492471 0.9962731 13684687
-0.2135233 -0.57556176 0.99558568 13619148
-0.19479887 -0.57501721 0.99518538 13948115
-0.17367418 -0.57440519 0.99360412 14342617
-0.15435533 -0.57301295 0.99322081 13684945
-0.13428299 -0.57416856 0.99377024 14013908
-0.11329877 -0.57493031 0.99479377 14277339
-0.094865099 -0.57438457 0.99405438 14540253
-0.072584324 -0.57419276 0.99341357 14606046
-0.054244705 -0.57348049 0.99134368 14737633
-0.034045652 -0.57461548 0.99096912 14869220
-0.014057488 -0.57274151 0.98958713 14869476
0.0043588746 -0.57410872 0.99138087 14672096
0.027584795 -0.57332528 0.99229264 14474459
0.045027405 -0.57394689 0.99182713 14277080
0.067210279 -0.57410997 0.98961681 14474460
0.08607728 -0.57331157 0.98871338 14342873
0.10611212 -0.573753 0.98767662 14342874
0.12618876 -0.57415372 0.98733389 14474460
0.14609592 -0.57422543 0.98634607 14671839
0.16605291 -0.57344848 0.98458111 14539996
0.18551911 -0.57309139 0.9840644 14277078
0.20599012 -0.57266378 0.9834922 14539995
0.2253378 -0.5725714 0.98163778 14539738
0.24568458 -0.57332021 0.98316443 14606045
0.26576042 -0.57141203 0.98035419 14408665
0.28621903 -0.57301509 0.9793613 14474201
0.30600497 -0.57198906 0.97893548 14211029
-0.27432305 -0.56037104 0.9947719 14013652
-0.25427085 -0.56126726 0.99372798 13684685
-0.23476976 -0.56201041 0.99390322 13487049
-0.21419653 -0.56166631 0.99322593 13355976
-0.19410373 -0.5622499 0.9926554 13684685
-0.17413184 -0.56125975 0.99156094 14342871
-0.15322645 -0.56066018 0.99071294 13553358
-0.13437711 -0.56255412 0.9912473 14014165
-0.11415717 -0.56149119 0.99133909 14211545
-0.094635986 -0.56186599 0.99115896 14540253
-0.073443413 -0.56191373 0.99099118 14474461
-0.053759977 -0.56071639 0.98857254 14474462
-0.035272636 -0.56153566 0.98841834 14672097
-0.014926676 -0.56071997 0.98709071 14672098
0.007502446 -0.56116402 0.99026549 14343133
0.025845591 -0.55973947 0.98958421 14211801
0.045304902 -0.5602057 0.98815089 14080215
0.065569758 -0.56031847 0.9865163 14014420
0.085270904 -0.55914068 0.98539615 13948115
0.10416009 -0.55963612 0.98470223 14013908
0.12650637 -0.55913103 0.98431838 14211544
0.14531925 -0.55949664 0.98419619 14540252
0.16505694 -0.55919039 0.98216254 14408665
0.1854167 -0.55954403 0.98120457 14079443
0.20526052 -0.55973387 0.9812991 14408665
0.22659625 -0.55985969 0.97983956 14605789
0.24366118 -0.55978841 0.97960633 14473944
0.2615391 -0.55966032 0.97940361 14408151
-0.22954141 -0.60135156 1.002148 14342615
-0.20530196 -0.60125029 1.0018167 14079703
-0.1945236 -0.60075629 1.0004978 14211031
-0.18106252 -0.60114902 1.0014855 14605277
-0.15461951 -0.60103858 1.001124 13882584
-0.084104806 -0.60074407 1.0001603 14803166
-0.0084502744 -0.60071784 0.99890065 14738148
-0.00037273113 -0.6009177 0.99776328 14738146
0.032314166 -0.60083735 0.99811786 14541022
0.045854017 -0.60049397 0.99674767 14474717
0.063922845 -0.60093403 0.99590635 14408924
0.087534636 -0.60040563 0.99667466 14606046
0.10436594 -0.60043687 0.99625969 14473945
0.12897225 -0.6002543 0.99428052 14277081
0.1463203 -0.600456 0.99357516 14671839
0.16646469 -0.60024279 0.99281418 14474200
0.18642332 -0.59962076 0.99138767 14540253
0.20628165 -0.59966695 0.99270552 14803168
0.22573373 -0.59942937 0.99042177 14737373
0.2470824 -0.60033959 0.9900552 14803425
0.26670685 -0.60023808 0.98920864 14605787
0.28603482 -0.60097384 0.98617554 14408665
0.3063668 -0.60151005 0.98617148 14342872
-0.27338746 -0.5880208 1.0021893 14079701
-0.2535508 -0.58968717 1.0017867 14079445
-0.23425838 -0.58982462 1.000986 14013908
-0.21432306 -0.59050971 1.0001278 13750737
-0.19371632 -0.58941013 0.99865508 14211289
-0.17401491 -0.58983117 0.99903321 14408667
-0.1540463 -0.590056 1.0002086 13882580
-0.13427499 -0.59017164 1.0003687 14277337
-0.114695 -0.58903456 0.99930239 14474462
-0.093338162 -0.58869743 0.99869007 14671841
-0.074851997 -0.58907676 0.99822658 14737890
-0.05410533 -0.59012133 0.99776244 14869476
-0.033936813 -0.5903343 0.99674058 14737890
-0.01316855 -0.58983827 0.99641973 14737891
0.0070143575 -0.58981192 0.99734259 14606304
0.025459448 -0.5889017 0.99769026 14474718
0.045710456 -0.58904576 0.99602437 14343132
0.06469442 -0.58970845 0.99485326 14343388
0.085887939 -0.59063005 0.99491096 14474717
0.10551196 -0.59106922 0.99364483 14474461
0.12605265 -0.59101337 0.99284399 14342874
0.14648098 -0.59080267 0.99179977 14671839
0.16602717 -0.59085631 0.99058974 14671580
0.18627314 -0.5898127 0.98928028 14605787
0.20520003 -0.59022897 0.99027842 14606044
0.22546743 -0.58956987 0.9873569 14671837
0.24612097 -0.59079218 0.98964667 14737631
0.26639962 -0.59021485 0.98884779 14539996
0.28404197 -0.58918321 0.98511368 14408151
0.30388901 -0.58895671 0.9859339 14211029
0.1732406 -0.62773699 1.0001386 14870761
0.18438788 -0.62774187 0.99877626 14672096
0.20686573 -0.62759656 0.99967903 14869218
0.227156 -0.62793463 0.99839652 14605790
0.24490169 -0.62767774 0.99770492 14671837
0.26704842 -0.6276536 0.99712533 14606046
0.2879653 -0.62872118 0.99592918 14671839
0.30593652 -0.62850994 0.99468446 14671581
-0.27354744 -0.61568379 1.009069 14211286
-0.25364903 -0.61580485 1.0089267 14145493
-0.23323712 -0.61525291 1.0071514 14145237
-0.21353859 -0.6152823 1.0066583 14145494
-0.19287859 -0.61538005 1.0066861 14408924
-0.17350936 -0.61409795 1.005456 14737889
-0.15401654 -0.6137439 1.0045588 14013909
-0.13365208 -0.61432314 1.0055575 14606046
-0.1138341 -0.61400747 1.0057998 14606304
-0.093650937 -0.6136483 1.0044379 14803681
-0.073955841 -0.6143592 1.004522 14869220
-0.053864148 -0.61401856 1.0048451 14869219
-0.033493381 -0.61434883 1.0039949 14869476
-0.01389988 -0.61438382 1.0025063 14737890
0.0059272032 -0.61484188 1.0032481 14606303
0.026019959 -0.61327541 1.0026696 14540511
0.046299443 -0.61399299 1.002003 14474460
0.067255378 -0.61376435 1.000626 14408923
0.086288735 -0.61445981 1.000419 14606047
0.10622874 -0.6144858 0.9993794 14540508
0.12575313 -0.61437619 0.99975675 14474460
0.14637706 -0.61510485 0.99897432 14408666
0.16659026 -0.61567289 0.99849057 14342617
0.18567808 -0.61539364 0.99635744 14474459
0.20607719 -0.61466086 0.99621934 14671838
0.2256496 -0.61457831 0.99481213 14803424
0.24491777 -0.61497438 0.99449819 14737375
0.26594457 -0.61608303 0.99442303 14605788
0.28563613 -0.61780059 0.99298209 14737376
0.30626702 -0.6177941 0.99150628 14606046
-0.27507222 -0.60272396 1.0079339 14013909
-0.25554156 -0.60336143 1.0060931 14013909
-0.24028537 -0.60347211 1.0057486 14145494
-0.21583806 -0.60317618 1.0055655 13947859
-0.1706325 -0.60318124 1.0047967 14606047
-0.15266648 -0.60310614 1.0045512 14079701
-0.13243693 -0.60270441 1.0045217 14606559
-0.1119574 -0.60223812 1.0045382 14540251
-0.094895035 -0.60228324 1.0042145 14737632
-0.072453946 -0.60259664 1.0035908 14935010
-0.053438727 -0.60269171 1.003195 15066855
-0.033537913 -0.60260856 1.002923 14869220
-0.019165091 -0.60254848 1.0027266 14803429
0.0098662749 -0.60225046 1.0031012 14606302
0.021742163 -0.60237759 1.0021675 14408923
0.077022232 -0.60214669 1.0014119 14738915
0.11682389 -0.60198045 1.000868 14474203
0.13616052 -0.65836 1.002272 15132644
0.23420215 -0.65615147 1.0023328 14804191
0.27295819 -0.65598959 1.0018032 14474203
0.28948653 -0.65592057 1.0015773 14474460
0.30715469 -0.65584677 1.0013357 14343131
-0.27382284 -0.6443283 1.0158358 13882323
-0.25467852 -0.64389026 1.0157428 14079702
-0.23285468 -0.64375335 1.0143872 13948116
-0.21336505 -0.64421207 1.0136788 14079703
-0.19337812 -0.64416355 1.0143182 14474460
-0.17352611 -0.64282024 1.0137528 14606303
-0.15285708 -0.64478379 1.0134921 13948375
-0.13367441 -0.64210117 1.0122379 14211545
-0.11355811 -0.64352489 1.0131809 14474718
-0.094283998 -0.64448112 1.0147009 14737889
-0.072575629 -0.64323479 1.0134122 14277596
-0.053770907 -0.64414018 1.0130472 15001062
-0.033681273 -0.64242887 1.0116348 14737892
-0.01388206 -0.64253265 1.0107721 14672097
0.0052536149 -0.64240116 1.0117277 14474717
0.027742442 -0.64248145 1.011512 14343131
0.047052659 -0.64286196 1.0107766 14145752
0.067096382 -0.6420157 1.0075392 14211544
0.086272918 -0.64274901 1.0074583 14277337
0.10601102 -0.64183438 1.0060915 14277080
0.12678434 -0.64234149 1.0056722 14869474
0.14611161 -0.6422475 1.0046539 14935011
0.16664331 -0.64202327 1.0037653 14935010
0.18676825 -0.64171672 1.0034987 14671838
0.20671675 -0.64235723 1.0035369 14868962
0.22612706 -0.64324009 1.0023128 14803169
0.24645783 -0.64275151 1.0008909 14605788
0.26601374 -0.64302999 1.0010024 14408409
0.28585318 -0.6442349 1.0007505 14606046
0.30634263 -0.64459854 0.99860221 14408666
-0.27322277 -0.63130605 1.0131756 14145495
-0.25377524 -0.63157392 1.0132989 14145493
-0.23503479 -0.63032895 1.0109799 14211287
-0.21301496 -0.63079429 1.0103291 14211288
-0.19481239 -0.63078701 1.0109926 14408665
-0.17451763 -0.63046128 1.0107964 14737888
-0.15307561 -0.63071275 1.011049 14079959
-0.13332407 -0.63001114 1.0101268 14737633
-0.11293799 -0.63053697 1.0111295 14737890
-0.093534052 -0.63135773 1.0121607 14803682
-0.072394177 -0.63078856 1.0099845 14540508
-0.053500004 -0.63101459 1.0111724 14803683
-0.034913704 -0.63011789 1.008808 14803683
-0.014001152 -0.63072038 1.0084397 14803426
0.0084244981 -0.63031441 1.0087787 14474717
0.026574316 -0.63028979 1.0094577 14342875
0.046822168 -0.6294955 1.0080436 14343388
0.066063419 -0.62931794 1.006893 14277593
0.086196914 -0.62969023 1.0051605 14408667
0.10774108 -0.630005 1.0050579 14408667
0.12514895 -0.62961537 1.0054545 14803681
0.14611551 -0.62915081 1.0045667 15066597
0.16323209 -0.62890035 1.0044721 14672353
0.19744693 -0.62977171 1.0032148 14868962
-0.27323455 -0.67239678 1.0226057 13948372
-0.25331703 -0.67264163 1.0218244 14079957
-0.23170757 -0.67315775 1.0220425 14079703
-0.21390699 -0.67158389 1.0212946 14079959
-0.19169515 -0.67179829 1.0209315 14277338
-0.17366561 -0.67162949 1.0211439 14606303
-0.15357046 -0.67155755 1.019985 14145752
-0.13411391 -0.67147863 1.0205977 14474719
-0.11269477 -0.67190415 1.0196121 14672355
-0.092564121 -0.67184329 1.0206237 14869477
-0.07435663 -0.67238051 1.022802 15001319
-0.050329324 -0.67252064 1.0195311 15066854
-0.032748055 -0.67212546 1.020103 14737376
-0.013774374 -0.6715892 1.0189604 14211546
0.0058757458 -0.67192805 1.019215 14277339
0.026681866 -0.67082965 1.0196316 14080216
0.047411337 -0.6720022 1.0188425 14079960
0.066129632 -0.67200911 1.0178338 14277337
0.087558076 -0.67085332 1.0170269 14343131
0.10797568 -0.67254436 1.0152489 14540511
0.12640736 -0.67094702 1.0117325 14935010
0.14658394 -0.66987431 1.0119027 14869218
0.1665231 -0.67142516 1.0118461 14935268
0.18678243 -0.67119861 1.0113548 14935009
0.20658356 -0.67124599 1.0113466 14671840
0.22643383 -0.66981649 1.0083026 14606045
0.24640574 -0.67001259 1.0085207 14539996
0.26607907 -0.66887087 1.0064299 14540252
0.28637093 -0.66975874 1.0061419 14605787
0.30647394 -0.67155963 1.0066123 14539997
-0.27336097 -0.66092569 1.0210838 13882580
-0.25214198 -0.66005218 1.0207751 14211544
-0.23371679 -0.66100687 1.0205448 14079701
-0.21272857 -0.66123295 1.0191886 14145496
-0.19314781 -0.66057128 1.0187222 14277339
-0.17316547 -0.66010648 1.0198066 14474717
-0.15339068 -0.66130698 1.0185734 14211546
-0.13333349 -0.65985066 1.0191303 14409182
-0.11372181 -0.66045672 1.0182756 14606560
-0.092608683 -0.66014194 1.0184443 14737890
-0.074321993 -0.65955675 1.0188439 14408926
-0.052255653 -0.66029888 1.0180259 15001062
-0.032560583 -0.66028261 1.0185742 14869476
-0.013470443 -0.66075689 1.0180726 14409182
0.0073029883 -0.65901577 1.0173607 14277339
0.025978621 -0.65891343 1.0168028 14014420
0.046498746 -0.6590367 1.0151166 14079958
0.065192319 -0.66087687 1.0161912 14145753
0.086366355 -0.66025257 1.0140232 14342874
0.10732467 -0.66050285 1.0145643 14277850
0.12449719 -0.6591742 1.0123978 15000804
0.15054876 -0.65708047 1.0099258 15001317
0.16429104 -0.65742975 1.0094916 14934755
0.1863036 -0.6566447 1.0090965 14868961
0.20543134 -0.65720999 1.0083328 14474456
0.22832425 -0.65711439 1.00802 15000292
0.26724219 -0.65695184 1.0074881 14342872
-0.27029216 -0.69824523 1.0275258 14211546
-0.23547743 -0.69828224 1.0262742 14342360
-0.18750821 -0.69789946 1.0263944 14408666
-0.083145544 -0.69746351 1.024968 14803683
-0.03135654 -0.69724721 1.0242602 14870502
0.055743143 -0.69688338 1.0230697 14277855
0.0663312 -0.69763529 1.0223051 14145749
0.091838509 -0.69673264 1.0225765 14737890
0.11184645 -0.69685751 1.0214164 15198439
0.12772992 -0.69785798 1.019143 15066598
0.14580256 -0.69754183 1.0200194 15132648
0.16594929 -0.69736487 1.0184762 15198184
0.18725026 -0.69693857 1.0175426 14869219
0.20532948 -0.69837779 1.0169851 15000805
0.2276123 -0.69762492 1.0159875 14935010
0.24682276 -0.69792575 1.0161281 14737375
0.26715925 -0.69789684 1.0165908 14671839
0.2858566 -0.69690359 1.0135515 14671582
0.30734169 -0.69739771 1.0130254 14474460
-0.2730028 -0.68776035 1.0267364 13816532
-0.25295129 -0.68756366 1.0265905 13947861
-0.23412028 -0.68680155 1.0252985 14079702
-0.21251599 -0.68692392 1.0263498 14145495
-0.19342509 -0.68721354 1.0257092 14145752
-0.17330724 -0.68564373 1.0246062 14277339
-0.15305106 -0.68622279 1.0257767 14014422
-0.13179106 -0.68722022 1.0274286 14474719
-0.11345109 -0.68677199 1.0255662 14672097
-0.093262911 -0.68692142 1.025049 14869220
-0.072726309 -0.68325222 1.0251628 14935270
-0.054566525 -0.68498909 1.0247072 15001063
-0.033138812 -0.68598634 1.0231861 15001319
-0.013358362 -0.68673331 1.0236737 14672098
0.0066715796 -0.68525195 1.024053 14343389
0.027626075 -0.6861909 1.0249771 14146010
0.046659943 -0.68709081 1.0231307 14211545
0.067107536 -0.68726218 1.0223777 14146007
0.086815335 -0.68707776 1.0225735 14540511
0.10523449 -0.68756199 1.0209103 14737890
0.1272371 -0.6877867 1.0170745 15066596
0.14751811 -0.68840909 1.0189366 15066598
0.16682974 -0.68882328 1.017593 15198440
0.18597804 -0.68732333 1.014874 14869218
0.20724952 -0.68817377 1.0158099 14803682
0.22572133 -0.68716878 1.0139561 14803681
0.24749021 -0.68744946 1.0136809 14737888
0.26662442 -0.68857855 1.0158283 14342616
0.28645417 -0.68616408 1.0113728 14473947
0.30673164 -0.68666476 1.0103022 14409180
-0.27782977 -0.7282787 1.0334209 14013399
0.14797276 -0.72581232 1.024968 15330026
0.17066236 -0.72673357 1.023867 14803941
0.18667093 -0.72644663 1.0236685 15067111
0.20577192 -0.72668618 1.0234475 15000804
0.22429745 -0.72686923 1.0260223 14935013
0.24802372 -0.72648579 1.0238072 14737631
0.26648021 -0.72517967 1.0213889 14606046
0.28779212 -0.72688299 1.0208365 14737632
0.30674312 -0.72596467 1.0205786 14343133
-0.27375588 -0.71374398 1.0326102 14211545
-0.25272226 -0.71230626 1.0336292 14343130
-0.23240383 -0.71261877 1.0324546 14474462
-0.21276537 -0.71173882 1.0320127 14474718
-0.19383332 -0.71112978 1.0330998 14474461
-0.17254534 -0.71101099 1.0329881 14540255
-0.15302192 -0.71130705 1.0324147 14146010
-0.13252559 -0.71289867 1.033372 14606561
-0.1135034 -0.71137965 1.0339408 14672097
-0.092271708 -0.70971781 1.0329956 14672097
-0.072940096 -0.7109884 1.0313545 14869476
-0.052677825 -0.71045095 1.0315357 15000806
-0.032865044 -0.71006197 1.0308828 14935269
-0.012437591 -0.71026713 1.0300272 14606304
0.0071395878 -0.71205366 1.0309925 14277338
0.026461814 -0.70802695 1.0297885 14080216
0.047237564 -0.71154791 1.0293444 14146010
0.066647366 -0.71267277 1.0277932 14277596
0.086941004 -0.71093118 1.0269705 14672098
0.10653968 -0.71163791 1.0263418 14935269
0.12653403 -0.71300828 1.0240197 15132648
0.14720982 -0.71178663 1.0218892 15198184
0.16667522 -0.71195304 1.02121 14935011
0.1865218 -0.71327382 1.0225449 14869477
0.20774561 -0.71353871 1.0209968 15132133
0.22560829 -0.71372843 1.0213394 15066598
0.24695134 -0.71290451 1.0195169 14869217
0.26679614 -0.7109744 1.0166712 14671582
0.287651 -0.71283144 1.0181009 14671839
0.30587167 -0.71257901 1.0172784 14539996
-0.25344238 -0.69856727 1.0320598 14343130
-0.22628322 -0.69845378 1.0316887 14409179
-0.21565574 -0.69840944 1.0315434 14474715
-0.16936713 -0.69821608 1.0309107 14606302
-0.15086736 -0.69805551 1.0312988 14211544
-0.13805307 -0.69728649 1.0311046 14474976
-0.11292336 -0.69798023 1.0301393 14803425
-0.10229588 -0.69793594 1.0299941 14606558
-0.072272345 -0.69750321 1.0310904 14869733
-0.052915625 -0.69749802 1.0300275 15066856
-0.040892627 -0.6976794 1.0291549 15198441
-0.0070421137 -0.69753802 1.0286922 14803939
0.0078491317 -0.69722313 1.0292615 14408924
0.020510629 -0.69742292 1.0283157 14146008
0.045701712 -0.69731772 1.0279714 14408410
0.081913881 -0.69716644 1.0274764 14738146
0.23491463 -0.75380576 1.0276845 14408669
0.24782902 -0.75187993 1.026528 14474460
0.27000234 -0.75284803 1.0267801 14672354
0.287258 -0.75101048 1.0256201 14737630
0.30724084 -0.75103545 1.0252379 14408668
-0.27216548 -0.73877192 1.039414 14079961
-0.25302753 -0.73918521 1.0396042 14277340
-0.23235528 -0.73923981 1.040383 14540512
-0.21318676 -0.73889083 1.0397619 14408926
-0.19289127 -0.73793995 1.0398246 14408668
-0.17380366 -0.73731297 1.0396675 14474720
-0.15267389 -0.73771799 1.0394537 13882581
-0.13289857 -0.73893303 1.0394174 14277597
-0.11412823 -0.73828942 1.0398884 14540512
-0.091340467 -0.73776507 1.0401871 14671841
-0.072258085 -0.73857975 1.0368725 14672354
-0.053936221 -0.73844653 1.039706 14869477
-0.031993274 -0.73856074 1.0391924 14738147
-0.01221963 -0.73858374 1.0372678 14409182
0.0053492263 -0.73823071 1.0377262 14211802
0.027020762 -0.73783207 1.0407586 14212060
0.048723996 -0.73712349 1.0378544 14211803
0.068647265 -0.73892552 1.0355806 14409182
0.086921893 -0.73928893 1.0318427 14606303
0.10720447 -0.73703241 1.0343348 14803683
0.12747997 -0.73829114 1.0335231 15001062
0.14790727 -0.74067879 1.0325167 15066854
0.16651611 -0.73984486 1.0300118 15001061
0.18821593 -0.7401219 1.0279553 14672096
0.20812 -0.74274057 1.0278547 14737889
0.2278244 -0.7407676 1.0284504 14803426
0.24630073 -0.74053872 1.0270365 14540253
0.26727888 -0.74227399 1.0271002 14671839
0.28662899 -0.74067801 1.02403 14737633
0.30785677 -0.74079514 1.0245566 14408924
-0.26586694 -0.72800785 1.0384992 14277848
-0.25450915 -0.72817135 1.0381798 14277338
-0.23266493 -0.72798437 1.037956 14606048
-0.21224913 -0.72841662 1.0372738 14474461
-0.19100401 -0.72661066 1.0383208 14474461
-0.17394993 -0.72736907 1.0378377 14540254
-0.1520081 -0.72753239 1.0369432 13949144
-0.13376765 -0.7276144 1.0365708 14474461
-0.11126812 -0.72687292 1.0382763 14737891
-0.094928026 -0.72603589 1.0385512 14803428
-0.072602361 -0.72694021 1.0360609 14869733
-0.05258001 -0.72680074 1.0358307 15001319
-0.033528954 -0.72642314 1.0361359 14737891
-0.013954293 -0.72729802 1.0359782 14606560
0.010381063 -0.72781318 1.0360893 14277079
0.027039452 -0.72771686 1.039544 14211803
0.042754665 -0.72725612 1.0359753 14277342
0.069695935 -0.72660619 1.033913 14540768
0.080917373 -0.72719204 1.033267 14672352
0.109783 -0.72707152 1.0328724 14935268
0.12782401 -0.72699612 1.0326259 15263720
-0.27350602 -0.76642072 1.0489622 14013908
-0.25207648 -0.76545197 1.0463293 14145754
-0.23228323 -0.76700389 1.0456529 14343134
-0.21319699 -0.76657921 1.0486984 14145495
-0.19185492 -0.76572156 1.046893 13882324
-0.17107485 -0.76511371 1.0452223 14277596
-0.15160641 -0.76558101 1.0452381 13554131
-0.13186699 -0.76600075 1.0449122 13882839
-0.11448552 -0.7654258 1.0447305 14079961
-0.093529835 -0.76603836 1.047007 14474463
-0.071680278 -0.76640189 1.0465701 14672354
-0.049997225 -0.76436961 1.0435456 14672099
-0.03270527 -0.7649954 1.0427496 14540512
-0.013333941 -0.76480621 1.0446855 14408668
0.0058941413 -0.76599258 1.0461527 14211804
0.027334981 -0.76516408 1.0448505 14146009
0.048223861 -0.76449484 1.0423778 14277338
0.06799297 -0.76593298 1.0407375 14343131
0.086283013 -0.76638925 1.0393783 14277594
0.10714249 -0.7670607 1.0407459 14474975
0.12908198 -0.76620805 1.0389498 14606304
0.14749114 -0.76565224 1.0379919 14605791
0.16742788 -0.7654264 1.03784 14343133
0.18676463 -0.76510221 1.0376594 14737634
0.20831299 -0.76606899 1.0344429 14737633
0.22718453 -0.76689243 1.0348852 14671840
0.24660613 -0.76757228 1.0353926 14408924
0.26776457 -0.76614273 1.0357993 14671839
0.28702182 -0.7668469 1.0342485 14606046
0.30769292 -0.76803833 1.0321397 14408925
-0.27316266 -0.75624436 1.0453403 14211289
-0.25189406 -0.7559588 1.0450376 14277082
-0.23283601 -0.75614965 1.0445473 14474463
-0.21194632 -0.75650185 1.0461545 14408668
-0.19264007 -0.75517935 1.0454963 14145751
-0.17237595 -0.75413167 1.0443242 14343133
-0.15260229 -0.7545684 1.0440152 13685202
-0.13243394 -0.75488579 1.0431992 14080219
-0.11182527 -0.75404519 1.0441527 14211804
-0.09368819 -0.75466913 1.0454723 14540512
-0.073396176 -0.75677669 1.0436699 14672354
-0.052449368 -0.75418502 1.0430987 14869735
-0.033317111 -0.75279063 1.0414134 14737891
-0.012494005 -0.75587761 1.0424253 14408926
0.0093160123 -0.75410283 1.0437286 14343389
0.02721034 -0.7532348 1.0436335 14211546
0.0461355 -0.75369298 1.0430216 14211802
0.065855123 -0.75488222 1.0404378 14408925
0.089479655 -0.755813 1.0372239 14211802
0.10772133 -0.75478941 1.0401917 14540255
0.12713945 -0.75511819 1.0387913 14672097
0.1452336 -0.75425833 1.0365951 14869475
0.16647059 -0.75573957 1.036599 14540511
0.18693 -0.75524658 1.0358242 14803683
0.2016637 -0.75497317 1.0336754 14869219
0.22485942 -0.75487632 1.0333585 14474465
-0.28059992 -0.79483336 1.0538939 13816532
-0.17533067 -0.79439366 1.0524552 13750997
-0.13146849 -0.79421043 1.0518557 13619404
-0.049318165 -0.79452658 1.0502195 14277853
-0.033441387 -0.79402077 1.0503448 14277597
-0.0199332 -0.79374456 1.0503312 14080221
0.0026181079 -0.79463929 1.0492531 14146011
0.048318759 -0.79438245 1.0486798 13882837
0.067492612 -0.79298371 1.0462757 13948372
0.087803729 -0.79291767 1.04836 14211548
0.10869157 -0.7934581 1.0466882 14474718
0.1273151 -0.79329973 1.0462058 14606305
0.14775352 -0.79283643 1.0437927 14606305
0.16764694 -0.79327846 1.0442141 14145496
