# .PCD v0.7 - Point Cloud Data file format
VERSION 0.7
FIELDS x y z
SIZE 4 4 4
TYPE F F F
COUNT 1 1 1
WIDTH 1115
HEIGHT 1
VIEWPOINT 0 0 0 1 0 0 0
POINTS 1115
DATA ascii
0.29773784 0.32996532 0.73791885
0.29836193 0.34959766 0.73774993
0.29873613 0.27123573 0.73847073
0.29866654 0.28923756 0.73800004
0.29834524 0.31214112 0.73865229
0.29800296 0.36889967 0.73814481
0.29819483 0.38636974 0.7386539
0.29933199 0.257866 0.73900002
0.28828749 0.35016167 0.74489516
0.28785339 0.36990875 0.74486828
0.2893461 0.31001925 0.74536616
0.28774825 0.3299703 0.745224
0.28919509 0.39019626 0.74541265
0.2900489 0.24992292 0.74680483
0.28926134 0.26990595 0.74629867
0.28883192 0.28997806 0.74607086
0.28864461 0.40409207 0.74712372
0.29013634 0.069844134 0.74853969
0.2899372 0.090004429 0.74892008
0.29014051 0.11000434 0.74871635
0.29005381 0.12999897 0.74848115
0.29001421 0.15006682 0.74851048
0.29003918 0.17004466 0.7485621
0.29019946 0.18999825 0.74860138
0.29003465 0.20993406 0.74856842
0.2898916 0.22986418 0.74822599
0.29004008 0.050078534 0.74970663
0.28977674 0.0098701157 0.75074261
0.28958547 0.030283438 0.75021392
0.27300227 0.32992557 0.75481135
0.2723501 0.3502371 0.7547704
0.27214026 0.37014532 0.75453687
0.27437383 0.29037672 0.75592548
0.27392125 0.31046432 0.75523621
0.27229357 0.39006862 0.7551468
0.27273145 0.40646937 0.75584453
0.27635178 0.1697018 0.75683862
0.27602816 0.20968024 0.75651908
0.27629086 0.22937505 0.75691146
0.27554077 0.25057861 0.75658756
0.27500415 0.27010339 0.75605816
0.2776143 0.030116241 0.75794321
0.27777112 0.051604241 0.75759321
0.27738625 0.070132419 0.75710529
0.27679557 0.090235405 0.75715542
0.27714324 0.11066036 0.75741667
0.2767275 0.12972721 0.75728267
0.27629909 0.1506367 0.75706112
0.27639189 0.18968676 0.75726038
0.27802521 0.0085839573 0.75802165
0.26253638 0.34967569 0.76081121
0.26230317 0.39030042 0.7607618
0.26411283 0.30980217 0.76139033
0.26351646 0.33043149 0.76143032
0.26251408 0.37027067 0.76117122
0.2631745 0.40828127 0.76107943
0.26656315 0.18999872 0.76285309
0.26623654 0.20998117 0.76290691
0.26650608 0.23036544 0.76274294
0.26541764 0.24968605 0.76287955
0.26470301 0.26993608 0.76283073
0.26462123 0.28951403 0.76239693
0.26818919 0.049469374 0.763394
0.26742983 0.069898367 0.76325768
0.26728994 0.10977153 0.7635138
0.26686564 0.13017544 0.76348615
0.2667954 0.14974272 0.7635057
0.26654193 0.17025876 0.76311171
0.26850981 0.0097714914 0.7643069
0.26777953 0.029676834 0.76431
0.26726508 0.089895129 0.76403326
0.25001839 0.37006184 0.76797426
0.2500014 0.38988629 0.76807886
0.24974427 0.40947619 0.76851302
0.25044656 0.3099463 0.76992285
0.25022739 0.32990366 0.76934117
0.25015765 0.35000771 0.76911193
0.25011173 0.27021366 0.77095276
0.25022995 0.29005167 0.77009296
0.25013211 0.16991712 0.77260369
0.24996804 0.18987824 0.77272522
0.25007418 0.20995572 0.77260089
0.25008973 0.23006162 0.7726348
0.2499065 0.25005931 0.77204835
0.24304536 0.42093319 0.77244449
0.25192362 0.0093318671 0.77379251
0.25085866 0.050087936 0.77361083
0.25032333 0.069975272 0.77327567
0.25008476 0.090009652 0.77324814
0.2502397 0.10998844 0.77349931
0.2502844 0.13007468 0.77320158
0.25044841 0.15005372 0.77313155
0.25112963 0.029931746 0.77424961
0.23581991 0.35079762 0.7768591
0.23534016 0.36963901 0.77655607
0.23485139 0.39082941 0.77672905
0.23684695 0.31061795 0.7776376
0.23617205 0.32992533 0.77737898
0.23490751 0.40925857 0.77704954
0.23519726 0.42261589 0.7776956
0.239041 0.085372001 0.77899998
0.239041 0.104495 0.77899998
0.239041 0.136595 0.77899998
0.2382604 0.17367043 0.77899992
0.23881333 0.19009466 0.77899998
0.23809467 0.2158765 0.77838892
0.2385131 0.22896224 0.77830762
0.23826294 0.25341642 0.77821416
0.23798731 0.26981986 0.77801651
0.23776317 0.29031241 0.77807575
0.24082901 0.050377 0.77999991
0.24071501 0.073172003 0.77999997
0.240715 0.114887 0.77999997
0.24098861 0.12227239 0.77999997
0.240715 0.14831956 0.77999997
0.24071498 0.17096268 0.77999997
0.240715 0.201736 0.77999997
0.24245133 0.010015639 0.78053188
0.24147552 0.029592168 0.78010005
0.2262437 0.34943962 0.78290915
0.2250476 0.38928336 0.78296727
0.22536632 0.41059074 0.78255564
0.22543234 0.42362472 0.78288913
0.22820264 0.26990131 0.78399926
0.22781472 0.28981915 0.78360385
0.22723164 0.30998826 0.78363013
0.22629432 0.33009586 0.78319061
0.22542137 0.37008572 0.78301382
0.22962259 0.1697282 0.78479129
0.22965232 0.19000393 0.78479815
0.22950944 0.20964935 0.7846235
0.22900879 0.23038994 0.78461206
0.2291065 0.24968997 0.78456277
0.23026988 0.030080533 0.7858358
0.22992447 0.050043359 0.7859177
0.23014565 0.069959588 0.78537554
0.22973177 0.090114132 0.78551704
0.22997281 0.11006651 0.78549427
0.22982527 0.12996106 0.78526181
0.22992583 0.14998266 0.78515047
0.23029616 0.0096524712 0.78654951
0.21027647 0.40990236 0.79008621
0.20973231 0.36986607 0.79175484
0.21002905 0.39006251 0.79128242
0.20941535 0.42619482 0.79105908
0.21006027 0.33006951 0.79256719
0.20981713 0.34982121 0.79210609
0.21002671 0.26987529 0.79351199
0.21009868 0.28993899 0.79312825
0.20989494 0.31010094 0.79309875
0.21174088 0.21005128 0.79425472
0.21163981 0.22977211 0.79406464
0.21149936 0.25020996 0.79413921
0.21409824 0.010125794 0.79549611
0.21363448 0.030219857 0.79514897
0.21381976 0.049755953 0.79569417
0.21321656 0.070173614 0.79522586
0.2131436 0.089688033 0.79543406
0.21316195 0.11027479 0.79508024
0.21245308 0.12952709 0.79514951
0.21248783 0.15024476 0.79506236
0.21214068 0.16993892 0.79510248
0.21116988 0.19037606 0.79526252
0.19769274 0.41060969 0.79757386
0.19674024 0.42745 0.7976501
0.19894399 0.271797 0.79899997
0.1987499 0.29103789 0.79888225
0.19885062 0.3099052 0.79899991
0.19894399 0.33106032 0.79899997
0.19861563 0.35064572 0.79835993
0.19759555 0.36784619 0.79880941
0.19784096 0.39162365 0.79806
0.200596 0.26091501 0.80000001
0.20374946 0.069611348 0.80070233
0.2032903 0.091291353 0.80097145
0.20342514 0.1093583 0.80034298
0.20293149 0.1309835 0.80056334
0.20228957 0.16996703 0.80068046
0.2017151 0.18716526 0.80011111
0.20178194 0.21037018 0.80015141
0.20176449 0.23007363 0.80034268
0.20141695 0.24985911 0.80037922
0.20429473 0.0089548416 0.80128121
0.20400216 0.029682247 0.80125248
0.20365722 0.049882594 0.80122197
0.20289335 0.14914232 0.80134439
0.18880621 0.34977084 0.80384076
0.1882932 0.38975933 0.80342984
0.187813 0.40994373 0.80373698
0.1869109 0.42947611 0.80355662
0.18934086 0.26976028 0.80484003
0.18926139 0.28983551 0.80429393
0.18892008 0.30988187 0.80422121
0.18958052 0.32995656 0.80425805
0.18787755 0.37036255 0.80432284
0.19006161 0.23013271 0.80595142
0.18995738 0.25009859 0.80571294
0.19023497 0.16990022 0.80684483
0.19027033 0.18993846 0.80646098
0.19012833 0.21007115 0.80626523
0.181126 0.440079 0.80699998
0.19021837 0.110149 0.80790591
0.19053625 0.13011332 0.80794239
0.19027878 0.14989461 0.80745673
0.19000255 0.0099197598 0.80896366
0.19002914 0.030504137 0.80888486
0.19005217 0.050216317 0.8083179
0.19054069 0.070133209 0.80802613
0.19019453 0.089933679 0.80806673
0.17020957 0.43001309 0.81229424
0.16995065 0.3700825 0.8138963
0.17043628 0.38988185 0.81364363
0.17027006 0.40994737 0.8133747
0.16713481 0.44225708 0.81368428
0.17104238 0.27031577 0.81451762
0.17018251 0.29004174 0.8143726
0.17007968 0.30994993 0.81413633
0.17037253 0.33013538 0.81424165
0.17014273 0.3501389 0.81414324
0.17508301 0.14993539 0.81566727
0.17442521 0.17003922 0.81546134
0.17368113 0.19023609 0.81581903
0.17332572 0.21048193 0.81541151
0.17269649 0.23007141 0.81526601
0.17268361 0.24987625 0.81509006
0.17517385 0.029183542 0.81679618
0.17511113 0.049752362 0.81608307
0.17501226 0.069669448 0.81614608
0.17537442 0.090279788 0.81677216
0.17461459 0.1093706 0.81645936
0.17506908 0.13005082 0.81611019
0.17590617 0.0095892437 0.81715894
0.15940601 0.30229601 0.81900001
0.15863214 0.40984949 0.81885201
0.15814206 0.43285602 0.81851858
0.15870231 0.44341123 0.8186667
0.15911861 0.29382342 0.81900012
0.161038 0.31129199 0.81999999
0.161038 0.32567102 0.81999999
0.15897492 0.33503884 0.81900012
0.15940601 0.34839457 0.81900007
0.15927535 0.36776885 0.81900018
0.1589954 0.38753814 0.81900018
0.16362455 0.20924892 0.82099998
0.16284934 0.22945505 0.82063425
0.16324712 0.25054485 0.82047135
0.16215527 0.26579097 0.82036358
0.16520301 0.089746706 0.82196456
0.16473195 0.11036535 0.82194322
0.16477418 0.13007767 0.82167894
0.16486984 0.15031111 0.82150424
0.16425493 0.16982026 0.8213473
0.16344959 0.18953931 0.82156044
0.16607372 0.0093747182 0.82219815
0.1654681 0.029577423 0.82229352
0.1650759 0.04983585 0.82210678
0.16484515 0.070009507 0.82219601
0.15001288 0.35013062 0.82388818
0.14896631 0.42973492 0.82372677
0.14986451 0.2897121 0.82446736
0.15011825 0.31011188 0.82419533
0.14981212 0.32973439 0.82421684
0.14972229 0.37038234 0.82423502
0.14962052 0.39020494 0.8240369
0.148932 0.41018933 0.8244487
0.1480878 0.44524992 0.82422709
0.15046647 0.27001092 0.82555366
0.15004267 0.24995463 0.82649052
0.14996438 0.20989975 0.82785994
0.14996468 0.23008457 0.82741785
0.14970669 0.16996054 0.82877153
0.14962994 0.1899512 0.82817441
0.14992233 0.050163809 0.82996148
0.15001087 0.070146874 0.82988197
0.14982174 0.11000203 0.82983536
0.14986062 0.12993121 0.8294583
0.14983958 0.14993574 0.82964754
0.14994767 0.0094630709 0.83037597
0.14990255 0.029839939 0.83011872
0.14982833 0.089994624 0.83011109
0.13017388 0.29001382 0.83390635
0.13035655 0.31003442 0.83393556
0.13007189 0.32992288 0.83366507
0.13013899 0.34989521 0.83374375
0.13013488 0.36994344 0.83379245
0.13007575 0.38999307 0.83364469
0.13012323 0.4098213 0.833359
0.13016742 0.43005112 0.83329815
0.12927364 0.4476895 0.83361667
0.13098994 0.27060774 0.8345744
0.1319349 0.25002733 0.83555794
0.13576579 0.15008251 0.83674389
0.13471827 0.17066059 0.83673191
0.13389811 0.18963702 0.83639073
0.13442354 0.21032812 0.83609527
0.1328716 0.23061231 0.83604479
0.13664725 0.0098271742 0.83757377
0.13657729 0.03053885 0.83754444
0.13555445 0.049828947 0.83731729
0.13600457 0.069972821 0.83711386
0.1354439 0.090362541 0.83719993
0.13538249 0.10964999 0.83731771
0.13563752 0.12973511 0.8370232
0.11832299 0.28803119 0.83899981
0.119164 0.31924099 0.83899999
0.119164 0.32953882 0.83899981
0.119164 0.35038018 0.83899981
0.11884857 0.36841935 0.83899981
0.11889637 0.39373475 0.83899981
0.11823475 0.40310082 0.83850002
0.11856948 0.43059731 0.83886951
0.11784101 0.44897392 0.83870965
0.120779 0.30820626 0.83999997
0.120779 0.38148299 0.83999997
0.120779 0.41683301 0.83999997
0.12363796 0.22889075 0.84061003
0.12227857 0.24994932 0.84043884
0.12169462 0.26548564 0.8401112
0.12562186 0.12987426 0.84193945
0.12599918 0.1499247 0.84130633
0.12555589 0.16932859 0.84179366
0.12436478 0.19019021 0.84150594
0.12493425 0.20986928 0.84114558
0.12655286 0.029938132 0.84257239
0.12533455 0.050139241 0.84296548
0.12592196 0.069864519 0.84245771
0.12527663 0.11017241 0.84227395
0.12652494 0.0094737951 0.84317696
0.12524499 0.089889266 0.84308922
0.11015709 0.30959663 0.84367019
0.10965729 0.34995735 0.8439998
0.10887652 0.43000171 0.84394115
0.10831936 0.44984007 0.84349072
0.10964277 0.28983319 0.84439218
0.10953331 0.33012539 0.84427208
0.10947987 0.36992532 0.84400052
0.10969233 0.38972679 0.84406203
0.1097986 0.41059399 0.8440116
0.11012497 0.26998043 0.84539664
0.10396014 0.46074501 0.84528571
0.10989106 0.25009763 0.8468104
0.10992806 0.20994659 0.84781158
0.11013011 0.22997373 0.84744066
0.11018223 0.16993055 0.84858203
0.11017851 0.19006141 0.84878033
0.10939546 0.11008164 0.84973186
0.10989629 0.13015054 0.8495791
0.11000904 0.1500445 0.84916943
0.10963004 0.029835353 0.85078555
0.10962293 0.049973596 0.85072428
0.10954319 0.070060857 0.85012054
0.10968851 0.089970209 0.85002589
0.10969095 0.0097009949 0.85125953
0.090414464 0.44996843 0.85171825
0.088656992 0.46242648 0.85159564
0.090474322 0.3699145 0.85286057
0.090411261 0.43029532 0.85283953
0.090565555 0.29003471 0.85371923
0.090459883 0.30992976 0.85316563
0.090556301 0.32987535 0.85302132
0.090465866 0.35011247 0.85345542
0.090597652 0.38996422 0.85310113
0.090407282 0.41014716 0.85305804
0.091023982 0.22993033 0.85559356
0.091366976 0.24990195 0.85552371
0.090740934 0.27045876 0.85510397
0.095373586 0.030418782 0.85693574
0.094423391 0.10971509 0.85688841
0.093658641 0.12947746 0.85654622
0.094182275 0.15052511 0.85688895
0.093392655 0.16991417 0.85664177
0.093553722 0.19044471 0.85612637
0.092596605 0.21045899 0.8561663
0.096118823 0.0099528171 0.85766196
0.096042678 0.049426157 0.85721767
0.095332086 0.07035508 0.85743421
0.094701819 0.090446323 0.85701168
0.077239953 0.45164293 0.8578335
0.076140605 0.4644278 0.85796785
0.078736067 0.28959858 0.85896534
0.078778036 0.31161794 0.85867846
0.077804208 0.32892752 0.85869563
0.078037545 0.34969658 0.85873908
0.078440152 0.37031695 0.85839987
0.078285739 0.3899267 0.85858947
0.07819403 0.41061801 0.85876185
0.078227974 0.42889434 0.85840511
0.081431001 0.26314199 0.86000001
0.079829998 0.27262652 0.85900003
0.080900684 0.22928034 0.86044824
0.081390873 0.25040653 0.86042112
0.085940503 0.050049089 0.86150861
0.085512124 0.06936907 0.86197126
0.084672391 0.08963611 0.86156547
0.084355809 0.11052216 0.8618021
0.083717115 0.13035192 0.86121315
0.084401086 0.14922673 0.86131817
0.083339073 0.16992605 0.86191297
0.08363992 0.18935947 0.86147428
0.082810372 0.20925663 0.86103338
0.086179093 0.0097263586 0.86243969
0.085448071 0.029962439 0.86225915
0.068146482 0.41006219 0.8629716
0.067685522 0.44940412 0.86280394
0.065709412 0.46512052 0.8620317
0.068827517 0.28996316 0.86359423
0.06890139 0.3098934 0.86373472
0.067695521 0.33009818 0.86324042
0.067894779 0.34994608 0.86346006
0.068452634 0.36990723 0.8637681
0.068068355 0.38998049 0.86343372
0.06816195 0.43042606 0.86307484
0.07031446 0.26997465 0.86410701
0.069811299 0.23005603 0.86580652
0.069846079 0.25006202 0.86549622
0.069851801 0.21013622 0.86676383
0.070008963 0.12993024 0.86784202
0.069929048 0.1500548 0.8678146
0.069997787 0.1699913 0.86767226
0.070021555 0.18996368 0.86745942
0.070068598 0.050278664 0.86889893
0.070061356 0.070078552 0.86882281
0.070091628 0.089917108 0.86854762
0.070120476 0.10991439 0.86823821
0.070132889 0.0099112922 0.86970812
0.070093706 0.03048289 0.86924791
0.049849618 0.46744132 0.86987668
0.050358519 0.43003753 0.87088954
0.050321057 0.45019257 0.87069249
0.050287955 0.30995008 0.8716526
0.050453641 0.32999727 0.87143654
0.050470829 0.3499594 0.87107605
0.05041533 0.3698031 0.87105888
0.050361861 0.39002109 0.87150866
0.050532825 0.41010508 0.87127042
0.050470579 0.28985119 0.87222195
0.049940147 0.26983789 0.87370342
0.050084949 0.23004279 0.87476432
0.049848422 0.24995902 0.87434977
0.05251772 0.10989587 0.87586176
0.052140415 0.13009009 0.87583983
0.05201738 0.15032041 0.87539995
0.051973052 0.17030403 0.87565291
0.051020645 0.19012205 0.87511069
0.05079801 0.2100358 0.87525922
0.054971039 0.0095658442 0.8768152
0.054826502 0.030270791 0.87651515
0.054083962 0.050559621 0.87619787
0.053401493 0.070535362 0.87619448
0.053145748 0.090268075 0.87618053
-0.29002687 0.12975432 0.87678981
0.035822932 0.45109251 0.87690359
0.033820275 0.46964455 0.87650925
-0.29346523 0.091134205 0.87790161
-0.28993943 0.11046623 0.87700534
-0.2946119 0.15033098 0.87783736
-0.29548001 0.16697314 0.87800002
0.037352644 0.2905345 0.87783915
0.036370009 0.30973452 0.87747967
0.036357652 0.32966384 0.87737811
0.036151767 0.35086429 0.87742084
0.036012035 0.37027696 0.87748152
0.036137689 0.39078853 0.8775661
0.03583369 0.4100067 0.87757826
0.035696238 0.43027321 0.87715292
-0.29901099 0.055101249 0.87900001
-0.29778302 0.072804973 0.87817949
-0.27752888 0.10976739 0.87872005
-0.27684626 0.12976101 0.87836546
-0.29751328 0.18669952 0.87874991
0.037764564 0.2735298 0.87830442
-0.283921 0.10029801 0.87999994
-0.28546399 0.13887399 0.88
-0.27805761 0.1410342 0.88
0.040659048 0.18856061 0.88
0.040119 0.2229705 0.88
0.0383779 0.24953549 0.87900007
-0.29371029 0.050626412 0.88048935
-0.2912645 0.067942806 0.88019073
-0.28645465 0.088179015 0.88013625
0.042695787 0.089406177 0.88050914
-0.2686888 0.10950521 0.88055408
0.042088024 0.11031731 0.88031089
-0.26768941 0.12781452 0.88047516
0.041649442 0.12978677 0.88060528
-0.28725627 0.14482594 0.88027555
0.041722476 0.14845029 0.88040531
0.041670702 0.16906294 0.88018882
-0.2946341 0.17594759 0.88020003
-0.29969099 0.202884 0.88099998
0.04040831 0.20869716 0.88000005
0.044484198 0.009493582 0.88176203
0.044374648 0.029295258 0.88151836
-0.29614925 0.032350566 0.88190573
0.04379442 0.048816338 0.88112527
0.04304862 0.068826057 0.88104993
-0.29525554 0.18882976 0.88108325
0.025787117 0.33017346 0.88194555
0.025772553 0.34949717 0.88190585
0.025290169 0.41027945 0.88193893
0.025093922 0.42963442 0.88156736
0.02560549 0.44936499 0.88128179
0.023503581 0.46943477 0.88130999
0.022411499 0.4807055 0.88150001
-0.26785699 0.099091999 0.88300002
-0.24980773 0.11002889 0.88276017
0.026882583 0.28980821 0.8825115
0.02575432 0.31002718 0.88214993
0.025292277 0.37004167 0.88244021
0.02569985 0.38983765 0.88224322
-0.24738209 0.097759955 0.88340753
-0.24924102 0.1283897 0.88323933
0.028819351 0.24991024 0.88309556
0.028330462 0.26951969 0.88304645
0.029473096 0.19000822 0.88487786
0.029428879 0.21006329 0.88463843
0.029471971 0.23008235 0.88430476
-0.22991167 0.11029676 0.88595861
0.029632572 0.1101004 0.88571739
-0.22990701 0.12962538 0.88571042
0.029502353 0.1499926 0.88574457
0.029462205 0.16988975 0.885144
0.02952324 0.049747694 0.88663304
0.029519213 0.069953233 0.88653845
0.029509638 0.090131991 0.88627315
0.029548559 0.13002388 0.88600039
0.029546332 0.029560598 0.88732034
0.00938584 0.44996929 0.88782245
0.0094692986 0.47019002 0.88751203
0.0072496925 0.4823153 0.88789749
0.029578915 0.0093430411 0.88830739
-0.21024953 0.11057339 0.88818991
-0.21009903 0.12982938 0.88826329
-0.19953001 0.140295 0.889
0.0094806263 0.32992125 0.88874531
0.0091379853 0.35004312 0.88886291
0.0095061632 0.36996564 0.88873947
0.009356956 0.41005644 0.88840163
0.0092777032 0.43003669 0.88861185
0.0093129594 0.30996999 0.88937724
0.0092722615 0.39013636 0.88907051
-0.21173613 0.097998418 0.89085704
-0.18996559 0.10944612 0.89090806
-0.19077902 0.12919165 0.89064372
0.0093317265 0.29003513 0.89023507
0.0093068406 0.24981616 0.89154178
0.0095053306 0.26997867 0.89113575
-0.22411813 0.095945999 0.89278269
0.0093648667 0.22996381 0.89265841
-0.16955183 0.10987184 0.8937006
0.0093849581 0.19005962 0.89353871
0.0094192205 0.21011679 0.89320642
0.010149916 0.05076538 0.89498073
0.010153522 0.070367754 0.89493459
0.009313615 0.089852042 0.89486188
0.0093487725 0.10997701 0.89477068
-0.17017484 0.1293371 0.89427531
0.0094967214 0.13004826 0.89435297
0.0094859721 0.15002725 0.89409679
0.009364346 0.16998716 0.89413846
0.011260397 0.0095608495 0.89592034
0.011021657 0.029670238 0.89532381
-0.18896826 0.095367201 0.8952899
-0.0086562615 0.43022755 0.8959682
-0.29021958 0.46985528 0.89590013
-0.0098825227 0.46979091 0.89553708
-0.010339958 0.48470598 0.89591169
-0.16855532 0.095096774 0.89626992
-0.15119182 0.11081773 0.89638644
-0.139828 0.1186185 0.89600003
-0.15130723 0.12985921 0.89630681
-0.0066377372 0.29080567 0.89689171
-0.0076337704 0.31027582 0.89651805
-0.0094651021 0.33037448 0.89661038
-0.0087641347 0.34977764 0.89650893
-0.0086029274 0.36995816 0.8960939
-0.0084104771 0.3900224 0.89620274
-0.0095923785 0.41030118 0.89618081
-0.28979358 0.43050721 0.89699441
-0.28959286 0.45023927 0.89680314
-0.0093802568 0.45021951 0.89605671
-0.28984281 0.48497242 0.89670759
-0.15421334 0.097425997 0.89743483
-0.0042463918 0.23050705 0.89776766
-0.0045970804 0.25005946 0.8975479
-0.0048178509 0.27033857 0.89753687
-0.2896854 0.41029862 0.89796072
-0.0018185385 0.13143277 0.89892316
-0.206504 0.141873 0.89899999
-0.040984999 0.148178 0.89899999
-0.039409 0.14896649 0.89899999
-0.0022985833 0.14938995 0.89879173
-0.0023327202 0.17058155 0.89876008
-0.0033477 0.19157274 0.89829987
-0.0034340508 0.21055004 0.89833343
-0.29950899 0.29950899 0.89899999
-0.29266942 0.31030732 0.89883131
-0.29387251 0.32948518 0.89880812
-0.27822798 0.347588 0.89899999
-0.29208264 0.35003173 0.8985579
-0.28979617 0.37011361 0.89810771
-0.29035026 0.3902725 0.89833629
-0.2738235 0.4114891 0.89890087
-0.2715255 0.43018109 0.89872992
-0.27144653 0.45074666 0.89879286
-0.27067336 0.47019368 0.89804089
-0.25747266 0.47028169 0.89899999
-0.27047294 0.48461077 0.89873624
-0.001576 0.091429152 0.89900005
0 0.104156 0.89999998
-0.27822801 0.30896717 0.89900005
-0.28285676 0.34946978 0.8999998
-0.28406101 0.36454499 0.89999998
-0.27785477 0.36679488 0.89900005
-0.018053316 0.3700999 0.8999998
-0.27762526 0.39019638 0.89900011
-0.018673996 0.40807474 0.89999992
-0.26230207 0.43010846 0.89999974
-0.26306325 0.44879898 0.89999974
-0.26155192 0.46662417 0.8999998
-0.018936999 0.47185677 0.89999998
-0.018936999 0.48448199 0.89999998
-0.2574324 0.48588386 0.89900011
-0.26581401 0.48970914 0.89999986
0.0012217418 0.0088607091 0.90032238
0.00093511108 0.030805627 0.90007389
0.0011271428 0.044426423 0.90028566
0.00017533333 0.066807002 0.90000004
-0.21087666 0.0866464 0.90054625
-0.22997725 0.087923683 0.90087354
-0.229471 0.15050758 0.90039271
-0.21039003 0.1507919 0.90088046
-0.2120471 0.16985629 0.90079623
-0.22983472 0.17014959 0.90013981
-0.22983988 0.18976055 0.90027964
-0.21387351 0.18965721 0.90096074
-0.28730738 0.30976164 0.90000057
-0.26954579 0.30958366 0.90079302
-0.017081128 0.3096008 0.90025651
-0.01795206 0.32560742 0.90006232
-0.27031073 0.32994527 0.9009515
-0.28428227 0.33012024 0.90003043
-0.26979527 0.35009599 0.90050352
-0.018218121 0.35114661 0.90020818
-0.26878673 0.37047842 0.90059245
-0.28222001 0.38847983 0.90000004
-0.26898074 0.38990444 0.90032524
-0.017851615 0.39050752 0.90013766
-0.26507702 0.4085235 0.9001146
-0.01816017 0.43031594 0.90058333
-0.018727995 0.44863874 0.90006649
-0.24945113 0.46995565 0.90094143
-0.24786679 0.48608944 0.90073234
-0.22997157 0.049785726 0.90138268
-0.22989552 0.069521122 0.90108371
-0.21045282 0.069527715 0.90118951
-0.15046325 0.0928111 0.90145451
-0.22981158 0.2097943 0.90148371
-0.012673375 0.20987183 0.90190035
-0.013663539 0.22957139 0.90186882
-0.014191445 0.26992628 0.90130711
-0.015854545 0.28930098 0.90128171
-0.24980195 0.40995124 0.90147686
-0.24942042 0.43009126 0.90103704
-0.249898 0.44992405 0.90138751
-0.22993948 0.029896697 0.90275311
-0.21038894 0.04982961 0.90217346
-0.18690261 0.085584007 0.90227461
-0.0111888 0.12972003 0.90268093
-0.066434555 0.14278018 0.9026897
-0.011591217 0.15009774 0.90246123
-0.011827681 0.1699571 0.90244544
-0.012779037 0.18970793 0.90250874
-0.21491183 0.20959583 0.90222365
-0.23225597 0.22190729 0.90266669
-0.014259793 0.25007629 0.90214479
-0.24996743 0.31009299 0.9022724
-0.250063 0.32999083 0.90260881
-0.25016499 0.3499184 0.90298182
-0.25022432 0.37010187 0.90256923
-0.24992259 0.38989964 0.90221465
-0.22951849 0.470121 0.90272766
-0.22938487 0.48646301 0.90221179
-0.21098673 0.030295504 0.90351278
-0.199726 0.038835499 0.90399998
-0.010204947 0.050060824 0.90382826
-0.010410894 0.069810137 0.90324014
-0.01066002 0.090128794 0.90316874
-0.010258711 0.11012451 0.90308809
-0.22997721 0.31013238 0.90376425
-0.22964714 0.32999852 0.90399998
-0.22976254 0.38980752 0.90369236
-0.22989069 0.41009799 0.90351552
-0.22955334 0.42985448 0.90333557
-0.22956812 0.44980866 0.90314901
-0.010323799 0.030133868 0.90453154
-0.19835268 0.051134814 0.90403199
-0.19195938 0.070434883 0.90482605
-0.17139752 0.085900605 0.90426105
-0.030023782 0.12999563 0.90442836
-0.029557401 0.14957412 0.90476036
-0.2491774 0.16996941 0.90481615
-0.24997844 0.18998723 0.90434879
-0.21483998 0.220734 0.90471417
-0.29010087 0.29012883 0.90467006
-0.22998814 0.3505373 0.90457976
-0.030150963 0.36984643 0.90481085
-0.22984681 0.37013647 0.90401888
-0.2097353 0.46993899 0.90439975
-0.030064296 0.46979848 0.90442383
-0.20977008 0.48681596 0.90444481
-0.030709537 0.48684144 0.90441328
-0.010328896 0.0095210569 0.90504456
-0.24917316 0.1512484 0.90572995
-0.25001201 0.20988247 0.90504056
-0.24591163 0.22209381 0.90533322
-0.030216813 0.32969251 0.90532887
-0.20980023 0.33000684 0.90561575
-0.030127268 0.34996024 0.90527844
-0.20978928 0.36976528 0.90577102
-0.030120589 0.38994238 0.90511
-0.20953335 0.40986693 0.90574181
-0.030263234 0.40999562 0.90524846
-0.20976494 0.42997286 0.90546268
-0.030137252 0.42997542 0.90535331
-0.030178145 0.44986415 0.90509611
-0.20987843 0.45013058 0.90525401
-0.23015036 0.009881909 0.90613788
-0.21154213 0.011713564 0.90655398
-0.069866791 0.13020907 0.90606576
-0.048511416 0.13115478 0.90643525
-0.1937343 0.14852409 0.90640587
-0.26993883 0.28945467 0.9062497
-0.2501075 0.2899344 0.906766
-0.20960175 0.3099131 0.90604138
-0.030092837 0.30993956 0.90605545
-0.20958088 0.35007355 0.90609187
-0.20966716 0.38988358 0.90629184
-0.19051123 0.44972309 0.90670395
-0.19050673 0.46965736 0.90675724
-0.19035774 0.48734906 0.90643913
-0.17057383 0.075942315 0.90735263
-0.048697788 0.14830258 0.90713924
-0.22989735 0.28982297 0.90758622
-0.030246289 0.29014033 0.90707177
-0.19034494 0.30991545 0.90749937
-0.18997 0.32978624 0.90753233
-0.19012035 0.35001323 0.90743512
-0.18997033 0.37006912 0.9078505
-0.18998149 0.38961825 0.90747684
-0.18982849 0.40971789 0.90795463
-0.18948451 0.42973831 0.90768421
-0.17028274 0.48778051 0.90760672
-0.25000405 0.03025173 0.90807712
-0.24982941 0.050047245 0.90834337
-0.25007072 0.069969326 0.90868026
-0.15015872 0.06915544 0.9089548
-0.25071335 0.087852091 0.9084478
-0.029391252 0.21006139 0.90896755
-0.029419821 0.23006585 0.90824527
-0.029817833 0.25024101 0.9084453
-0.030145815 0.27012759 0.90817076
-0.21013978 0.28964439 0.90895498
-0.17046134 0.3098602 0.90854996
-0.17042795 0.32971215 0.90837765
-0.17065103 0.35017967 0.90888757
-0.17020684 0.37001503 0.90892375
-0.17026004 0.44972655 0.90854007
-0.17045152 0.46994042 0.90850204
-0.14310376 0.057682391 0.90992314
-0.02963201 0.18998845 0.90960187
-0.18987367 0.28958631 0.90996587
-0.17023155 0.38973141 0.90929532
-0.1703206 0.41007873 0.90969378
-0.17026277 0.43038478 0.90935504
-0.14997448 0.48822743 0.90992355
-0.24951282 0.010472826 0.91034412
-0.13188837 0.0550262 0.91020447
-0.13501768 0.062721469 0.91008681
-0.02942281 0.11001956 0.91090131
-0.029509105 0.17000417 0.91000658
-0.14992234 0.31027544 0.91034019
-0.15031891 0.33009905 0.91093194
-0.14993931 0.34997058 0.91075873
-0.15033297 0.4499414 0.91090149
-0.14992055 0.46981564 0.91078103
-0.02978074 0.050012797 0.91181874
-0.029424548 0.070102863 0.91107219
-0.029726161 0.090084538 0.91144949
-0.074587524 0.11651901 0.91163152
-0.26646179 0.2077148 0.91199976
-0.17001331 0.28986362 0.91106409
-0.15026695 0.36998519 0.91113359
-0.15012513 0.39003292 0.91135395
-0.15040192 0.41019464 0.91131157
-0.1499594 0.43000469 0.91102487
-0.12979849 0.4888427 0.9117133
-0.029432774 0.030086072 0.91263664
-0.15021683 0.29026023 0.91205215
-0.13011675 0.31016275 0.91201991
-0.12975077 0.33020052 0.91208595
-0.12961671 0.35023764 0.91220957
-0.12953177 0.37031901 0.91243994
-0.12983739 0.39008841 0.91272283
-0.12943386 0.41009447 0.91279817
-0.12983532 0.43015435 0.91271204
-0.12943071 0.45016217 0.91277838
-0.12974013 0.47022274 0.91247672
-0.050729848 0.4890008 0.91255385
-0.029639998 0.0096049616 0.91324389
-0.089604273 0.12649909 0.91335016
-0.26826337 0.18994239 0.91376913
-0.050164755 0.26979268 0.91312891
-0.11017817 0.30970469 0.91357762
-0.050487611 0.3099176 0.91382152
-0.1102061 0.3293924 0.91380847
-0.050404016 0.32996228 0.91310215
-0.050435971 0.35003969 0.91327697
-0.050431795 0.37005273 0.91357547
-0.050400417 0.40991941 0.91331613
-0.05042642 0.42992672 0.9137302
-0.05051513 0.44981313 0.91374087
-0.050487593 0.46993124 0.91353005
-0.11022057 0.48960286 0.91367608
-0.069665633 0.26775733 0.91428858
-0.12963538 0.28972182 0.91410846
-0.10974376 0.34972054 0.91456515
-0.11000676 0.36989728 0.91432947
-0.10969306 0.39011312 0.91481495
-0.050560836 0.39010227 0.91400671
-0.10995898 0.40998507 0.91496605
-0.10988145 0.4299044 0.91483146
-0.10964986 0.47028315 0.91448402
-0.071074352 0.0065753385 0.91531104
-0.26446798 0.015864162 0.91563988
-0.26400504 0.028015848 0.91567504
-0.2659156 0.15459163 0.91554582
-0.26724532 0.16935265 0.9152357
-0.049642269 0.2504898 0.91556698
-0.28989142 0.27645233 0.91560507
-0.10993861 0.28996584 0.91554815
-0.050379556 0.29010987 0.91532701
-0.11002755 0.45045686 0.91501379
-0.048326507 0.0066125724 0.91653711
-0.086598277 0.010239919 0.91635406
-0.26426724 0.070083909 0.91693175
-0.26495939 0.087311491 0.91673148
-0.09053459 0.11348105 0.9164257
-0.04550219 0.17007118 0.91653639
-0.046771768 0.19023593 0.91626549
-0.046611503 0.20978521 0.91620368
-0.047123808 0.23019437 0.91628325
-0.069409117 0.25640321 0.9166556
-0.26992312 0.27645874 0.9160946
-0.24966122 0.27642232 0.91625351
-0.23034376 0.27653781 0.91627693
-0.21003687 0.27655745 0.91601533
-0.17018451 0.27677122 0.91696543
-0.15044621 0.27781004 0.91695243
-0.090112619 0.31002098 0.91660953
-0.090059623 0.32975328 0.91660637
-0.090029858 0.3497113 0.91664416
-0.089964285 0.36997989 0.91669321
-0.09118399 0.38994056 0.91687757
-0.090982482 0.410032 0.91644788
-0.091494896 0.42911848 0.91696954
-0.090652831 0.48986277 0.91633308
-0.078266397 0.028685221 0.91716659
-0.089445196 0.030249109 0.91744131
-0.043098483 0.030130817 0.91785169
-0.10141 0.032193668 0.91799998
-0.078873999 0.041046999 0.91799998
-0.043389641 0.049720868 0.91749966
-0.26407227 0.051306065 0.91743475
-0.044131964 0.070899837 0.91710287
-0.044595223 0.089899853 0.91731316
-0.0435954 0.10999223 0.91748357
-0.103294 0.12340882 0.91774994
-0.19031282 0.27725878 0.91730183
-0.092441738 0.29017863 0.91732806
-0.092291325 0.44987184 0.91727674
-0.091815986 0.47063985 0.91700739
-0.063412853 0.4701376 0.91795796
-0.065190487 0.49157563 0.9179284
-0.091299236 0.048406333 0.91840804
-0.10212021 0.049395535 0.91859996
-0.10308233 0.11775622 0.91855556
-0.10439218 0.22750162 0.91861904
-0.096928261 0.2382925 0.91875005
-0.086920045 0.25181958 0.91872734
-0.084382154 0.26763013 0.91814715
-0.13233636 0.2785863 0.91815996
-0.11157291 0.278723 0.91813046
-0.066253357 0.31117353 0.91875005
-0.065155417 0.32877898 0.9186576
-0.064468324 0.34870571 0.91860449
-0.066572249 0.3710241 0.91849965
-0.062426776 0.39022255 0.91855174
-0.062817916 0.40992442 0.91858315
-0.064953335 0.42744106 0.91839182
-0.062761188 0.45036796 0.91842836
-0.084536828 0.50079215 0.91833335
-0.06815917 0.50070125 0.9181667
-0.27101499 0.017745001 0.92000002
-0.14241038 0.115419 0.91900009
-0.14088467 0.12152667 0.92000002
-0.05895482 0.24388446 0.92000002
-0.061234001 0.28038901 0.91900003
-0.059687998 0.291987 0.92000002
-0.081465498 0.300053 0.92000002
-0.080659002 0.337156 0.92000002
-0.080659002 0.36458001 0.92000002
-0.081107073 0.40912187 0.91999996
-0.080838226 0.48987076 0.91999996
-0.073400006 0.50089443 0.91999996
-0.27161941 0.030647116 0.92072409
-0.27025053 0.050506607 0.92083716
-0.1442854 0.10730848 0.92027551
-0.1299845 0.10980172 0.92089039
-0.11062852 0.10909438 0.92088151
-0.054461956 0.12544928 0.92059499
-0.27702606 0.18366602 0.92061114
-0.10709465 0.18980689 0.92057663
-0.057202533 0.18919818 0.92077529
-0.10629229 0.20856382 0.92052692
-0.057458334 0.2103564 0.92065299
-0.089217015 0.22954635 0.92034191
-0.057626333 0.22923483 0.92019033
-0.07220237 0.27844501 0.920421
-0.082674488 0.28787774 0.92010796
-0.071205057 0.30943522 0.92055529
-0.071876138 0.33039126 0.9204759
-0.072513819 0.35023201 0.92052251
-0.072036244 0.36933503 0.92053545
-0.072114758 0.39011073 0.920982
-0.081202544 0.3921406 0.92006671
-0.072637066 0.40999123 0.92054623
-0.082309149 0.43394265 0.92041665
-0.082195505 0.44980055 0.92020589
-0.082366675 0.46828121 0.92051512
-0.053205363 0.02981399 0.9217549
-0.2735714 0.084425703 0.92193538
-0.055188835 0.089729026 0.92180818
-0.14813668 0.095434166 0.92188001
-0.054304741 0.11008486 0.92153424
-0.10891363 0.15001974 0.92151272
-0.27611515 0.15448858 0.92137492
-0.05571793 0.15631102 0.92148137
-0.10666659 0.16972339 0.92122048
-0.056411374 0.16986178 0.92153066
-0.27740881 0.17179316 0.92127591
-0.070261009 0.23016895 0.921152
-0.10620086 0.23268095 0.92192942
-0.08991611 0.24983165 0.92194378
-0.09147884 0.27080885 0.92159742
-0.070345052 0.29007885 0.92141861
-0.072834887 0.43158236 0.92110467
-0.072518334 0.45000419 0.9216029
-0.073259279 0.46965536 0.92157793
-0.073238879 0.48901486 0.92107081
-0.052016281 0.015082381 0.92218155
-0.053356919 0.050328892 0.92201018
-0.27410519 0.069890909 0.92220956
-0.0542611 0.069334045 0.9221561
-0.10961502 0.089969605 0.92253232
-0.1107287 0.13094543 0.92218626
-0.070409857 0.2471555 0.92262733
-0.29030532 0.24936186 0.92377657
-0.29008603 0.26684719 0.92334932
-0.27003303 0.26680294 0.92372757
-0.10964223 0.070092313 0.92454582
-0.12604101 0.091467366 0.92426288
-0.088899426 0.10427252 0.92403334
-0.064366862 0.12108885 0.92428577
-0.070688292 0.21033767 0.92433524
-0.24950436 0.26681992 0.92431295
-0.10986939 0.26944908 0.92480928
-0.089355126 0.070126064 0.92576247
-0.27035648 0.24981147 0.92521137
-0.22991902 0.26674312 0.92511404
-0.21003914 0.26708198 0.92562914
-0.18990926 0.2676051 0.92533582
-0.16973709 0.26720008 0.92579705
-0.12987371 0.26865077 0.9258377
-0.11126019 0.055028122 0.92681372
-0.084671363 0.055425946 0.92675596
-0.069573663 0.10882179 0.92654872
-0.12895046 0.13006912 0.92661041
-0.094661474 0.13674864 0.92642862
-0.070597902 0.16997629 0.92684364
-0.07060001 0.18987669 0.92649698
-0.089989327 0.21060881 0.92646927
-0.25012389 0.24952511 0.92631561
-0.10979018 0.25018042 0.926355
-0.14989476 0.26815882 0.92627639
-0.089258507 0.089846216 0.92742455
-0.06997253 0.090312928 0.92789596
-0.090255886 0.1901522 0.92788047
-0.28596532 0.23907149 0.92750001
-0.067506365 0.015751239 0.92815256
-0.069051936 0.030171735 0.92825443
-0.069225237 0.049667425 0.92871594
-0.069662012 0.07013154 0.92812216
-0.071539372 0.15440257 0.92809558
-0.23003243 0.24890782 0.92816478
-0.209912 0.24953414 0.92891443
-0.12462928 0.069392622 0.9292503
-0.2925604 0.15587912 0.92942297
-0.27042791 0.23854464 0.92976016
-0.090231583 0.15004654 0.93083149
-0.090611033 0.17034829 0.93014091
-0.19009587 0.24965504 0.93057692
-0.29906401 0.080077 0.93199998
-0.29573876 0.16982627 0.93179214
-0.24582206 0.23647848 0.93144155
-0.29461002 0.04977132 0.93296182
-0.12464735 0.054309376 0.93206638
-0.29505944 0.06705486 0.9322803
-0.29672965 0.1891966 0.93222231
-0.29832533 0.21003085 0.93245846
-0.17004865 0.2500267 0.9321847
-0.22959743 0.23488855 0.93354756
-0.20911917 0.23568912 0.93375796
-0.14975819 0.25012863 0.93381244
-0.12997369 0.25010982 0.93374622
-0.29537833 0.0093735578 0.93415147
-0.2944304 0.030979002 0.93425757
-0.13088909 0.14935699 0.93494546
-0.19004931 0.2334694 0.9356755
-0.11025956 0.026366742 0.93684036
-0.12930974 0.029671676 0.93644732
-0.14313513 0.15078455 0.93642873
-0.141298 0.161835 0.93699998
-0.13801199 0.16195242 0.93699992
-0.17022035 0.23489152 0.936795
-0.13125581 0.23613732 0.93679041
-0.1084452 0.014697223 0.93775612
-0.15090962 0.23593223 0.93723196
-0.12953533 0.017255174 0.93817002
-0.098789997 0.0172885 0.93900001
-0.098894998 0.0222515 0.94
-0.09744592 0.0068877856 0.94021434
-0.1216938 0.15615711 0.94039994
-0.182229 0.22675501 0.94050002
-0.17403978 0.22806205 0.94138879
-0.11535619 0.23003019 0.94290215
-0.11104451 0.0045347838 0.94358134
-0.11214396 0.034549378 0.94307411
-0.11268413 0.048301984 0.94409597
-0.11741914 0.21431503 0.94430441
-0.121091 0.038152002 0.94599998
-0.11846758 0.18823572 0.94523799
-0.12943256 0.22754574 0.94578671
-0.11881085 0.17418422 0.94671446
-0.12953945 0.17071338 0.94890714
-0.12987573 0.21013053 0.94842911
-0.12986086 0.18994389 0.94912654
-0.14889316 0.2263152 0.94950539
-0.12996131 0.00679929 0.95129985
-0.13568044 0.08692944 0.95255786
-0.13564767 0.073314309 0.95337123
-0.14711429 0.087583698 0.953044
-0.14331406 0.1736981 0.95306033
-0.14642066 0.19262987 0.95432878
-0.14513452 0.075264804 0.9550277
-0.14949489 0.21029542 0.95543855
-0.14487745 0.0078361854 0.95762962
-0.14566308 0.04309671 0.95758343
-0.19674399 0.0142935 0.95899999
-0.14563464 0.035599228 0.95803845
-0.161431 0.21356 0.95899999
-0.159355 0.19554617 0.95999998
-0.15967557 0.20464428 0.95999998
-0.1521799 0.028066056 0.9609673
-0.15367644 0.0099574141 0.96151996
-0.15540761 0.045825977 0.96102768
-0.17062597 0.2100451 0.96302199
-0.17152128 0.22582729 0.9636088
-0.17094506 0.1907625 0.96435183
-0.1884385 0.0094115157 0.96527326
-0.16981946 0.0093473699 0.96672004
-0.16992044 0.029434931 0.96647125
-0.16976154 0.049785521 0.96635675
-0.17505676 0.17635979 0.96638453
-0.19020724 0.20947738 0.96620393
-0.20588128 0.226274 0.96657628
-0.17451872 0.062398888 0.96794128
-0.1895518 0.029561032 0.96855211
-0.19080815 0.22696619 0.9702239
-0.18914697 0.05017798 0.97139752
-0.19013147 0.1901184 0.97130591
-0.2100354 0.20963155 0.97133666
-0.1901761 0.062637843 0.97236842
-0.1904458 0.17450251 0.97226566
-0.20280875 0.063718401 0.97686666
-0.2028912 0.033907607 0.97703594
-0.20270069 0.050338704 0.97763431
-0.20663597 0.17401357 0.97726667
-0.20791404 0.19050069 0.97709346
-0.22303119 0.21015979 0.97700006
-0.2228215 0.22153576 0.97749996
-0.22144701 0.19827199 0.97899997
-0.20326589 0.0078029558 0.97900003
-0.21012689 0.049232394 0.98061222
-0.20970571 0.061388999 0.9802857
-0.21611769 0.17277527 0.98021722
-0.22017901 0.178895 0.98100001
-0.22120272 0.18772902 0.98084611
-0.21778452 0.18856268 0.98025906
-0.22442175 0.22528274 0.98075002
-0.21177116 0.0095463647 0.98156798
-0.21213345 0.029666975 0.98148966
-0.22025366 0.034414001 0.98133332
-0.22133228 0.0060426001 0.98459995
-0.29608238 0.21512772 1.0056365
