# .PCD v0.7 - Point Cloud Data file format
VERSION 0.7
FIELDS x y z rgb
SIZE 4 4 4 4
TYPE F F F U
COUNT 1 1 1 1
WIDTH 1060
HEIGHT 1
VIEWPOINT 0 0 0 1 0 0 0
POINTS 1060
DATA ascii
0.26530749 1.4853452 -0.064816594 1261745332
0.27482471 1.4848677 -0.064771391 1261745332
0.28494531 1.485823 -0.064861797 1261811125
0.29522827 1.4848677 -0.064771391 1261745332
0.30535787 1.485823 -0.064861797 1261876918
0.31487048 1.4853454 -0.064816594 1261876918
0.32507473 1.4853454 -0.064816594 1261811125
0.33527848 1.4853454 -0.064816594 1261811125
0.34478015 1.4848675 -0.064771391 1261811125
0.35493183 1.4858229 -0.064861797 1261811125
0.36518398 1.4848675 -0.064771391 1261876918
0.37534443 1.485823 -0.064861797 1261811125
0.38484147 1.4853454 -0.064816594 1261811125
0.39433214 1.4848675 -0.064771391 1261876918
0.40450573 1.485823 -0.064861797 1261811125
0.41473556 1.4848677 -0.064771391 1262469055
0.42491841 1.4858229 -0.064861797 1262798020
0.4351396 1.4848677 -0.064771391 1262798020
0.44533116 1.485823 -0.064861797 1262732227
0.45554304 1.4848677 -0.064771391 1262666434
0.46501449 1.4853452 -0.064816594 1262798020
0.47449237 1.485823 -0.064861797 1262798020
0.48469114 1.4848675 -0.064771391 1262798020
0.49490502 1.485823 -0.064861797 1262798020
0.50509506 1.4848675 -0.064771391 1262732227
0.51531798 1.485823 -0.064861797 1262732227
0.52549845 1.4848675 -0.064771391 1262798020
0.53498548 1.4853452 -0.064816594 1262666434
0.54447901 1.4858229 -0.064861797 1262732227
0.55464685 1.4848675 -0.064771391 1262732227
0.56489152 1.485823 -0.064861797 1262732227
0.57505047 1.4848675 -0.064771391 1262732227
0.58530456 1.485823 -0.064861797 1262600641
0.59545422 1.4848675 -0.064771391 1262600641
0.60495651 1.4853454 -0.064816594 1262534848
0.61446553 1.485823 -0.064861797 1262600641
0.62460244 1.4848677 -0.064771391 1262600641
0.63487846 1.4858229 -0.064861797 1262534848
0.64500606 1.4848675 -0.064771391 1262534848
0.65529144 1.4858229 -0.064861797 1262469055
0.66541022 1.4848675 -0.064771391 1262534848
0.67492837 1.4853454 -0.064816594 1262600641
0.68513227 1.4853452 -0.064816594 1262469055
0.69533652 1.4853454 -0.064816594 1262534848
0.70486575 1.485823 -0.064861797 1262534848
0.71496183 1.4848675 -0.064771391 1262600641
0.72449094 1.4853452 -0.064816594 1262600641
0.73469526 1.4853452 -0.064816594 1262600641
0.74285668 1.4864601 -0.064922072 1262666434
-0.74546778 1.4954205 -0.06577009 1261547953
-0.73521596 1.4954205 -0.06577009 1261547953
-0.72496378 1.4954205 -0.06577009 1261547953
-0.71471196 1.4954205 -0.06577009 1261547953
-0.70445973 1.4954205 -0.06577009 1261613746
-0.69420797 1.4954205 -0.06577009 1261679539
-0.68542004 1.4954205 -0.06577009 1261679539
-0.67516851 1.4954205 -0.06577009 1261482160
-0.66491604 1.4954205 -0.06577009 1261745332
-0.65466446 1.4954205 -0.06577009 1261745332
-0.64441204 1.4954205 -0.06577009 1261745332
-0.63562495 1.4954205 -0.06577009 1261811125
-0.62537277 1.4954205 -0.06577009 1261811125
-0.61512095 1.4954205 -0.06577009 1261876918
-0.60486877 1.4954205 -0.06577009 1261745332
-0.59461695 1.4954205 -0.06577009 1261811125
-0.58582932 1.4954205 -0.06577009 1261942711
-0.5755775 1.4954205 -0.06577009 1261811125
-0.56532502 1.4954205 -0.06577009 1261811125
-0.5550735 1.4954205 -0.06577009 1261745332
-0.54482102 1.4954205 -0.06577009 1261350574
-0.5345695 1.4954205 -0.06577009 1261811125
-0.52431703 1.4954205 -0.06577009 1261876918
-0.51552999 1.4954205 -0.06577009 1261876918
-0.50527775 1.4954205 -0.06577009 1261876918
-0.49502599 1.4954205 -0.06577009 1261811125
-0.48477376 1.4954205 -0.06577009 1261811125
-0.47452199 1.4954205 -0.06577009 1261876918
-0.465734 1.4954205 -0.06577009 1261942711
-0.45548251 1.4954205 -0.06577009 1261876918
-0.44523001 1.4954205 -0.06577009 1261679539
-0.43497851 1.4954205 -0.06577009 1261876918
-0.42472601 1.4954205 -0.06577009 1261942711
-0.41447425 1.4954201 -0.065769732 1262271676
-0.40422201 1.4954199 -0.065769374 1262863813
-0.39543501 1.4954199 -0.065769374 1262666434
-0.3851825 1.4954197 -0.065769374 1262863813
-0.37493101 1.4954199 -0.065769374 1262732227
-0.3646785 1.4954197 -0.065769374 1262798020
-0.35442701 1.4954199 -0.065769374 1262798020
-0.34563899 1.4954199 -0.065769374 1262863813
-0.3353875 1.4954197 -0.065769374 1262798020
-0.32513499 1.4954199 -0.065769374 1262798020
-0.31488323 1.4954197 -0.065769374 1262732227
-0.30463099 1.4954199 -0.065769374 1262863813
-0.29584399 1.4954199 -0.065769374 1262534848
-0.28559151 1.4954197 -0.065769374 1262534848
-0.27533999 1.4954199 -0.065769374 1262798020
-0.26508752 1.4954197 -0.065769374 1262666434
-0.25483599 1.4954199 -0.065769374 1262666434
-0.24458352 1.4954197 -0.065769374 1262600641
-0.23433201 1.4954199 -0.065769374 1262600641
-0.22554402 1.4954199 -0.065769374 1262666434
-0.2152925 1.4954197 -0.065769374 1262666434
-0.20503999 1.4954205 -0.06577009 1262600641
-0.1947885 1.4954205 -0.06577009 1262534848
-0.184536 1.4954205 -0.06577009 1262600641
-0.175749 1.4954205 -0.06577009 1262403262
-0.16549675 1.4954205 -0.06577009 1262600641
-0.15524501 1.4954205 -0.06577009 1262469055
-0.1449925 1.4954205 -0.06577009 1262534848
-0.13474099 1.4954205 -0.06577009 1262534848
-0.1244885 1.4954205 -0.06577009 1262534848
-0.114237 1.4954205 -0.06577009 1262600641
-0.105449 1.4954205 -0.06577009 1262600641
-0.095197506 1.4954205 -0.06577009 1262600641
-0.084945001 1.4954205 -0.06577009 1262600641
-0.074693501 1.4954205 -0.06577009 1262600641
-0.064440995 1.4954205 -0.06577009 1262469055
-0.055654 1.4954205 -0.06577009 1262666434
-0.045401499 1.4954205 -0.06577009 1262534848
-0.035150003 1.4954205 -0.06577009 1262469055
-0.024897499 1.4954205 -0.06577009 1262534848
-0.014646 1.4954205 -0.06577009 1262600641
-0.0058579999 1.4954205 -0.06577009 1262534848
0.0043934998 1.4954205 -0.06577009 1261482160
0.014646 1.4954205 -0.06577009 1261679539
0.024897501 1.4954205 -0.06577009 1261613746
0.035149999 1.4954205 -0.06577009 1261482160
0.045401499 1.4954205 -0.06577009 1261482160
0.055654 1.4954205 -0.06577009 1261547953
0.064441003 1.4954205 -0.06577009 1261482160
0.074693501 1.4954205 -0.06577009 1261350574
0.084945001 1.4954205 -0.06577009 1261547953
0.095197499 1.4954205 -0.06577009 1261547953
0.105449 1.4954205 -0.06577009 1261547953
0.114237 1.4954205 -0.06577009 1261613746
0.1244885 1.4954205 -0.06577009 1261613746
0.13474099 1.4954205 -0.06577009 1261679539
0.1449925 1.4954205 -0.06577009 1261613746
0.15524501 1.4954205 -0.06577009 1261482160
0.16549675 1.4954205 -0.06577009 1261745332
0.175749 1.4954205 -0.06577009 1261745332
0.184536 1.4954205 -0.06577009 1261745332
0.19478852 1.4954205 -0.06577009 1261811125
0.20503999 1.4954205 -0.06577009 1261876918
0.21529251 1.4954205 -0.06577009 1261811125
0.22554399 1.4954205 -0.06577009 1261745332
0.23433201 1.4954205 -0.06577009 1261811125
0.2445835 1.4954205 -0.06577009 1261876918
0.25483599 1.4954205 -0.06577009 1261811125
0.26508775 1.4954205 -0.06577009 1261811125
0.27533999 1.4954205 -0.06577009 1261745332
0.28559175 1.4954205 -0.06577009 1261482160
0.29584399 1.4954205 -0.06577009 1261811125
0.30463099 1.4954205 -0.06577009 1261876918
0.3148835 1.4954205 -0.06577009 1261876918
0.32513499 1.4954205 -0.06577009 1261876918
0.33538753 1.4954205 -0.06577009 1261811125
0.34563899 1.4954205 -0.06577009 1261811125
0.35442701 1.4954205 -0.06577009 1261942711
0.3646785 1.4954205 -0.06577009 1261942711
0.37493101 1.4954205 -0.06577009 1261876918
0.38518274 1.4954205 -0.06577009 1261745332
0.39543501 1.4954205 -0.06577009 1261876918
0.40422201 1.4954205 -0.06577009 1261942711
0.41447449 1.4954205 -0.06577009 1262534848
0.42472601 1.4954205 -0.06577009 1262863813
0.43497849 1.4954205 -0.06577009 1262666434
0.44523001 1.4954205 -0.06577009 1262863813
0.45548248 1.4954205 -0.06577009 1262732227
0.465734 1.4954205 -0.06577009 1262798020
0.47452199 1.4954205 -0.06577009 1262798020
0.48477376 1.4954205 -0.06577009 1262863813
0.49502599 1.4954205 -0.06577009 1262798020
0.50527775 1.4954205 -0.06577009 1262798020
0.51553005 1.4954205 -0.06577009 1262732227
0.52431703 1.4954205 -0.06577009 1262863813
0.5345695 1.4954205 -0.06577009 1262534848
0.54482102 1.4954205 -0.06577009 1262600641
0.5550735 1.4954205 -0.06577009 1262798020
0.56532502 1.49542 -0.065769613 1262600641
0.5755775 1.4954197 -0.065769374 1262666434
0.58582902 1.4954199 -0.065769374 1262534848
0.59461701 1.4954199 -0.065769374 1262600641
0.60486853 1.4954197 -0.065769374 1262666434
0.61512071 1.4954199 -0.065769374 1262666434
0.62537253 1.4954197 -0.065769374 1262534848
0.635625 1.4954205 -0.06577009 1262600641
0.64441198 1.4954205 -0.06577009 1262600641
0.65466446 1.4954205 -0.06577009 1262469055
0.66491598 1.4954205 -0.06577009 1262600641
0.67516851 1.4954205 -0.06577009 1262469055
0.68542004 1.4954205 -0.06577009 1262534848
0.69420797 1.4954205 -0.06577009 1262600641
0.70445979 1.4954205 -0.06577009 1262534848
0.71471196 1.4954205 -0.06577009 1262600641
0.72496372 1.4954205 -0.06577009 1262666434
0.73521596 1.4954205 -0.06577009 1262534848
0.744003 1.4954205 -0.06577009 1262666434
-0.75281304 1.5067372 -0.066839956 1261613746
-0.74524403 1.5051147 -0.066686399 1261613746
-0.73506588 1.5060883 -0.066778533 1261613746
-0.7254402 1.5056014 -0.066732466 1261547953
-0.71513963 1.5056015 -0.066732466 1261613746
-0.70483929 1.5056014 -0.066732466 1261679539
-0.6952247 1.5051146 -0.066686399 1261613746
-0.6850239 1.5060881 -0.066778533 1261547953
-0.6754095 1.5056014 -0.066732466 1261547953
-0.66510916 1.5056013 -0.066732466 1261613746
-0.6548087 1.5056014 -0.066732466 1261745332
-0.64520544 1.5051146 -0.066686399 1261745332
-0.63498247 1.5060881 -0.066778533 1261679539
-0.62537903 1.5056014 -0.066732466 1261811125
-0.61507875 1.5056013 -0.066732466 1261811125
-0.60477817 1.5056014 -0.066732466 1261745332
-0.59518611 1.5051147 -0.066686399 1261745332
-0.58494049 1.5060881 -0.066778533 1261942711
-0.57459003 1.5051146 -0.066686399 1261876918
-0.56433529 1.5060881 -0.066778533 1261745332
-0.55474764 1.5056014 -0.066732466 1261679539
-0.54516679 1.5051146 -0.066686399 1261613746
-0.53489906 1.5060881 -0.066778533 1261745332
-0.52457088 1.5051146 -0.066686399 1261811125
-0.51501983 1.5056014 -0.066732466 1261876918
-0.50546271 1.5060881 -0.066778533 1261876918
-0.49514756 1.5051146 -0.066686399 1261876918
-0.48485714 1.5060883 -0.066778533 1261745332
-0.47455144 1.5051147 -0.066686399 1261876918
-0.46498954 1.5056014 -0.066732466 1261876918
-0.45542082 1.5060883 -0.066778533 1261811125
-0.44512844 1.5051147 -0.066686399 1261811125
-0.43481544 1.5060881 -0.066778533 1261811125
-0.42453223 1.5051147 -0.066686399 1261876918
-0.41495886 1.5056013 -0.066732682 1262337469
-0.40537897 1.506088 -0.066778816 1262732227
-0.39510912 1.5051143 -0.066686772 1262798020
-0.38477358 1.506088 -0.066778816 1262863813
-0.37451282 1.5051143 -0.066686772 1262732227
-0.36492848 1.505601 -0.066732794 1262798020
-0.35533732 1.506088 -0.066778816 1262798020
-0.3450897 1.5051143 -0.066686772 1262798020
-0.33473188 1.506088 -0.066778816 1262863813
-0.32449344 1.5051143 -0.066686772 1262798020
-0.31489787 1.505601 -0.066732794 1262863813
-0.30529556 1.506088 -0.066778816 1262863813
-0.29507041 1.5051143 -0.066686772 1262469055
-0.28469017 1.506088 -0.066778816 1262403262
-0.27447441 1.5051143 -0.066686772 1262732227
-0.26486734 1.505601 -0.066732794 1262732227
-0.25525373 1.506088 -0.066778816 1262732227
-0.24505115 1.5051143 -0.066686772 1262600641
-0.2354375 1.505601 -0.066732794 1262534848
-0.22513725 1.5056012 -0.066732794 1262600641
-0.21483684 1.505601 -0.066732794 1262732227
-0.205212 1.506088 -0.066778816 1262666434
-0.19503185 1.5051143 -0.066686772 1262666434
-0.18540716 1.505601 -0.066732794 1262600641
-0.17510675 1.5056012 -0.066732794 1262534848
-0.1648065 1.505601 -0.066732794 1262600641
-0.15517044 1.506088 -0.066778816 1262534848
-0.14501257 1.5051143 -0.066686772 1262403262
-0.13537668 1.505601 -0.066732794 1262337469
-0.12507625 1.5056012 -0.066732794 1262534848
-0.11477584 1.505601 -0.066732794 1262534848
-0.10512858 1.506088 -0.066778816 1262600641
-0.094993576 1.5051143 -0.066686772 1262600641
-0.085346162 1.505601 -0.066732794 1262403262
-0.07504575 1.5056012 -0.066732712 1262469055
-0.064745501 1.5056014 -0.066732466 1262534848
-0.055086859 1.5060883 -0.066778533 1262469055
-0.04497429 1.5051146 -0.066686399 1262337469
-0.035315666 1.5056014 -0.066732466 1262469055
-0.025015123 1.5056015 -0.066732466 1262600641
-0.014714833 1.5056014 -0.066732466 1262469055
-0.0058860001 1.5056014 -0.066732466 1262469055
0.0044145002 1.5056014 -0.066732466 1261547953
0.014714833 1.5056014 -0.066732466 1261547953
0.025015125 1.5056015 -0.066732466 1261547953
0.035315666 1.5056014 -0.066732466 1261482160
0.04497429 1.5051146 -0.066686399 1261482160
0.055086855 1.5060881 -0.066778533 1261482160
0.064745493 1.5056014 -0.066732466 1261416367
0.07504575 1.5056014 -0.066732466 1261613746
0.085346162 1.5056014 -0.066732466 1261613746
0.094993576 1.5051146 -0.066686399 1261547953
0.10512858 1.5060883 -0.066778533 1261613746
0.11477584 1.5056014 -0.066732466 1261679539
0.12507626 1.5056013 -0.066732466 1261679539
0.13537668 1.5056014 -0.066732466 1261547953
0.14501286 1.5051146 -0.066686399 1261482160
0.15517043 1.5060881 -0.066778533 1261613746
0.1648065 1.5056014 -0.066732466 1261613746
0.17510688 1.5056013 -0.066732466 1261745332
0.18540716 1.5056014 -0.066732466 1261745332
0.19503185 1.5051147 -0.066686399 1261679539
0.205212 1.5060881 -0.066778533 1261811125
0.21483684 1.5056014 -0.066732466 1261811125
0.22513726 1.5056013 -0.066732466 1261745332
0.23543768 1.5056014 -0.066732466 1261745332
0.24505129 1.5051146 -0.066686399 1261876918
0.25525385 1.5060883 -0.066778533 1261876918
0.26486734 1.5056014 -0.066732466 1261811125
0.27447441 1.5051147 -0.066686399 1261679539
0.28469014 1.5060881 -0.066778533 1261613746
0.29507041 1.5051146 -0.066686399 1261745332
0.30529556 1.5060881 -0.066778533 1261811125
0.31489787 1.5056014 -0.066732466 1261876918
0.32449341 1.5051147 -0.066686399 1261876918
0.334732 1.5060883 -0.066778533 1261876918
0.34508985 1.5051146 -0.066686399 1261811125
0.35533729 1.5060883 -0.066778533 1261876918
0.36492851 1.5056014 -0.066732466 1261876918
0.37451288 1.5051147 -0.066686399 1261811125
0.38477358 1.5060883 -0.066778533 1261811125
0.39510915 1.5051146 -0.066686399 1261876918
0.40537903 1.5060883 -0.066778533 1261876918
0.41495883 1.5056014 -0.066732466 1262337469
0.42453226 1.5051144 -0.066686496 1262732227
0.43481526 1.506088 -0.066778816 1262863813
0.44512817 1.5051143 -0.066686772 1262798020
0.45542082 1.506088 -0.066778816 1262732227
0.46498951 1.505601 -0.066732794 1262798020
0.47455144 1.5051143 -0.066686772 1262798020
0.48485714 1.506088 -0.066778816 1262798020
0.49514762 1.5051143 -0.066686772 1262863813
0.50546253 1.506088 -0.066778816 1262798020
0.51501983 1.505601 -0.066732794 1262863813
0.52457058 1.5051143 -0.066686772 1262863813
0.5348987 1.506088 -0.066778816 1262337469
0.54516667 1.5051143 -0.066686772 1262469055
0.55474764 1.505601 -0.066732794 1262732227
0.56433517 1.506088 -0.066778816 1262732227
0.57459003 1.5051143 -0.066686772 1262732227
0.58494055 1.506088 -0.066778816 1262534848
0.59518594 1.5051143 -0.066686772 1262534848
0.60477817 1.505601 -0.066732794 1262666434
0.61507851 1.5056012 -0.066732794 1262732227
0.62537891 1.505601 -0.066732794 1262666434
0.63498229 1.506088 -0.066778816 1262600641
0.64520508 1.5051143 -0.066686772 1262600641
0.65480846 1.505601 -0.066732794 1262534848
0.6651091 1.5056012 -0.066732794 1262600641
0.6754095 1.505601 -0.066732794 1262534848
0.68502396 1.506088 -0.066778816 1262403262
0.69522476 1.5051143 -0.066686772 1262403262
0.70483917 1.505601 -0.066732794 1262469055
0.71513945 1.5056012 -0.066732794 1262534848
0.72544003 1.505601 -0.066732794 1262666434
0.73506576 1.506088 -0.066778816 1262600641
0.74524373 1.5051143 -0.066686772 1262403262
0.751638 1.509009 -0.067054927 1262600641
-0.754013 1.5158678 -0.067704022 1261482160
-0.74514198 1.5158678 -0.067704022 1261613746
-0.73479253 1.5158679 -0.067704022 1261547953
-0.72444338 1.5158678 -0.067704022 1261613746
-0.71557301 1.5158678 -0.067704022 1261547953
-0.7052235 1.5158679 -0.067704022 1261613746
-0.69487399 1.5158678 -0.067704022 1261679539
-0.68452525 1.5158679 -0.067704022 1261613746
-0.67417604 1.5158678 -0.067704022 1261547953
-0.66530496 1.5158678 -0.067704022 1261613746
-0.65495598 1.5158679 -0.067704022 1261679539
-0.64460701 1.5158678 -0.067704022 1261811125
-0.63573599 1.5158678 -0.067704022 1261679539
-0.62538671 1.5158679 -0.067704022 1261745332
-0.61503798 1.5158678 -0.067704022 1261811125
-0.60468853 1.5158679 -0.067704022 1261745332
-0.59433901 1.5158678 -0.067704022 1261679539
-0.58546901 1.5158678 -0.067704022 1261745332
-0.5751195 1.5158679 -0.067704022 1261745332
-0.56476998 1.5158678 -0.067704022 1261613746
-0.55589932 1.5158678 -0.067704022 1261745332
-0.54555053 1.5158679 -0.067704022 1261416367
-0.53520101 1.5158678 -0.067704022 1261745332
-0.5248515 1.5158679 -0.067704022 1261876918
-0.514503 1.5158678 -0.067704022 1261942711
-0.50563198 1.5158678 -0.067704022 1261876918
-0.49528247 1.5158679 -0.067704022 1261811125
-0.48493364 1.5158678 -0.067704022 1261942711
-0.47458452 1.5158679 -0.067704022 1261876918
-0.46423498 1.5158678 -0.067704022 1261876918
-0.45536432 1.5158678 -0.067704022 1261811125
-0.44501552 1.5158679 -0.067704022 1261745332
-0.43466601 1.5158678 -0.067704022 1261876918
-0.42579499 1.5158678 -0.067704022 1261876918
-0.41544652 1.5158679 -0.067704022 1262337469
-0.40509701 1.5158678 -0.067704022 1262732227
-0.3947475 1.5158679 -0.067704022 1262863813
-0.38439834 1.5158678 -0.067704022 1262798020
-0.37552801 1.5158678 -0.067704022 1262732227
-0.36517853 1.5158679 -0.067704022 1262798020
-0.35482898 1.5158678 -0.067704022 1262798020
-0.34448048 1.5158679 -0.067704022 1262929606
-0.334131 1.5158678 -0.067704022 1262798020
-0.32526001 1.5158678 -0.067704022 1262798020
-0.31491125 1.5158679 -0.067704022 1262863813
-0.304562 1.5158678 -0.067704022 1262666434
-0.29569101 1.5158678 -0.067704022 1262798020
-0.28534201 1.5158679 -0.067704022 1262798020
-0.274993 1.5158678 -0.067704022 1262732227
-0.26464349 1.5158679 -0.067704022 1262666434
-0.25429401 1.5158678 -0.067704022 1262732227
-0.24542399 1.5158678 -0.067704022 1262600641
-0.23507451 1.5158679 -0.067704022 1262666434
-0.22472501 1.5158678 -0.067704022 1262666434
-0.21585466 1.5158678 -0.067704022 1262600641
-0.20550549 1.5158679 -0.067704022 1262732227
-0.19515599 1.5158678 -0.067704022 1262732227
-0.184807 1.5158679 -0.067704022 1262666434
-0.17445798 1.5158678 -0.067704022 1262534848
-0.16558701 1.5158678 -0.067704022 1262666434
-0.15523751 1.5158679 -0.067704022 1262600641
-0.144889 1.5158678 -0.067704022 1262469055
-0.13453948 1.5158679 -0.067704022 1262600641
-0.12419 1.5158678 -0.067704022 1262666434
-0.11531967 1.5158678 -0.067704022 1262732227
-0.1049705 1.5158679 -0.067704022 1262666434
-0.094621003 1.5158678 -0.067704022 1262666434
-0.085750334 1.5158678 -0.067704022 1262666434
-0.0754015 1.5158679 -0.067704022 1262534848
-0.065052003 1.5158678 -0.067704022 1262469055
-0.054702498 1.5158679 -0.067704022 1262337469
-0.044354003 1.5158678 -0.067704022 1262337469
-0.035482999 1.5158678 -0.067704022 1262469055
-0.0251335 1.5158679 -0.067704022 1262534848
-0.014784667 1.5158678 -0.067704022 1262534848
-0.0059140003 1.5158678 -0.067704022 1262534848
0.0044355001 1.5158679 -0.067704022 1261547953
0.014784667 1.5158678 -0.067704022 1261547953
0.0251335 1.5158679 -0.067704022 1261547953
0.035483003 1.5158678 -0.067704022 1261613746
0.044354003 1.5158678 -0.067704022 1261416367
0.054702751 1.5158679 -0.067704022 1261416367
0.065052003 1.5158678 -0.067704022 1261547953
0.0754015 1.5158679 -0.067704022 1261482160
0.085750334 1.5158678 -0.067704022 1261613746
0.094621003 1.5158678 -0.067704022 1261547953
0.1049705 1.5158679 -0.067704022 1261547953
0.11531967 1.5158678 -0.067704022 1261613746
0.12419 1.5158678 -0.067704022 1261613746
0.13453948 1.5158679 -0.067704022 1261613746
0.144889 1.5158678 -0.067704022 1261613746
0.15523775 1.5158679 -0.067704022 1261547953
0.16558699 1.5158678 -0.067704022 1261679539
0.17445801 1.5158678 -0.067704022 1261679539
0.184807 1.5158679 -0.067704022 1261811125
0.19515599 1.5158678 -0.067704022 1261679539
0.20550549 1.5158679 -0.067704022 1261745332
0.21585466 1.5158678 -0.067704022 1261745332
0.22472501 1.5158678 -0.067704022 1261811125
0.23507451 1.5158679 -0.067704022 1261679539
0.24542402 1.5158678 -0.067704022 1261745332
0.25429437 1.5158678 -0.067704022 1261745332
0.26464349 1.5158679 -0.067704022 1261613746
0.274993 1.5158678 -0.067704022 1261679539
0.28534201 1.5158679 -0.067704022 1261416367
0.29569101 1.5158678 -0.067704022 1261811125
0.30456197 1.5158678 -0.067704022 1261876918
0.31491125 1.5158679 -0.067704022 1261942711
0.32526001 1.5158678 -0.067704022 1261811125
0.334131 1.5158678 -0.067704022 1261811125
0.34448048 1.5158679 -0.067704022 1261876918
0.35482931 1.5158678 -0.067704022 1261876918
0.3651785 1.5158679 -0.067704022 1261876918
0.37552798 1.5158678 -0.067704022 1261811125
0.3843987 1.5158678 -0.067704022 1261679539
0.3947475 1.5158679 -0.067704022 1261876918
0.40509701 1.5158678 -0.067704022 1261876918
0.41544622 1.5158679 -0.067704022 1262534848
0.42579499 1.5158678 -0.067704022 1262732227
0.43466601 1.5158678 -0.067704022 1262863813
0.44501549 1.5158679 -0.067704022 1262798020
0.45536399 1.5158678 -0.067704022 1262798020
0.46423498 1.5158678 -0.067704022 1262798020
0.47458452 1.5158679 -0.067704022 1262798020
0.48493335 1.5158678 -0.067704022 1262929606
0.49528247 1.5158679 -0.067704022 1262798020
0.50563198 1.5158678 -0.067704022 1262798020
0.514503 1.5158678 -0.067704022 1262798020
0.5248515 1.5158679 -0.067704022 1262666434
0.53520101 1.5158678 -0.067704022 1262798020
0.54555047 1.5158679 -0.067704022 1262798020
0.55589896 1.5158678 -0.067704022 1262732227
0.56476998 1.5158678 -0.067704022 1262666434
0.5751195 1.5158679 -0.067704022 1262666434
0.58546829 1.5158678 -0.067704022 1262600641
0.59433901 1.5158678 -0.067704022 1262666434
0.60468847 1.5158679 -0.067704022 1262666434
0.61503768 1.5158678 -0.067704022 1262600641
0.62538648 1.5158679 -0.067704022 1262732227
0.63573599 1.5158678 -0.067704022 1262732227
0.64460701 1.5158678 -0.067704022 1262666434
0.65495574 1.5158679 -0.067704022 1262600641
0.66530496 1.5158678 -0.067704022 1262666434
0.67417604 1.5158678 -0.067704022 1262600641
0.68452501 1.5158679 -0.067704022 1262469055
0.69487399 1.5158678 -0.067704022 1262600641
0.70522356 1.5158679 -0.067704022 1262666434
0.71557301 1.5158678 -0.067704022 1262666434
0.72444296 1.5158678 -0.067704022 1262666434
0.73479253 1.5158679 -0.067704022 1262666434
0.74514198 1.5158678 -0.067704022 1262666434
0.75253403 1.5158679 -0.067704022 1262469055
-0.761783 1.5297158 -0.069013655 1261613746
-0.75531048 1.5257466 -0.06863825 1261679539
-0.74503988 1.526739 -0.068732098 1261613746
-0.73532015 1.5262427 -0.068685174 1261745332
-0.72492164 1.5262427 -0.068685174 1261745332
-0.71452326 1.5262429 -0.068685174 1261745332
-0.70481485 1.5257466 -0.06863825 1261745332
-0.69452137 1.526739 -0.068732098 1261745332
-0.6848132 1.5262429 -0.068685174 1261679539
-0.67511159 1.5257466 -0.06863825 1261679539
-0.66480476 1.526739 -0.068732098 1261745332
-0.65510315 1.5262429 -0.068685174 1261745332
-0.64540827 1.5257466 -0.06863825 1261745332
-0.63508797 1.5267389 -0.068732098 1261613746
-0.62539315 1.5262427 -0.068685174 1261679539
-0.61499459 1.5262427 -0.068685174 1261745332
-0.60459614 1.5262427 -0.068685174 1261745332
-0.59491259 1.5257467 -0.06863825 1261811125
-0.58456957 1.526739 -0.068732098 1261811125
-0.57488614 1.5262429 -0.068685174 1261811125
-0.56520951 1.5257467 -0.06863825 1261745332
-0.55485266 1.5267389 -0.068732098 1261679539
-0.54517615 1.5262427 -0.068685174 1261613746
-0.53550631 1.5257466 -0.06863825 1261811125
-0.52513593 1.5267389 -0.068732098 1261811125
-0.514714 1.5257466 -0.06863825 1261876918
-0.50507003 1.5262427 -0.068685174 1261811125
-0.49541929 1.526739 -0.068732098 1261876918
-0.48501068 1.5257467 -0.06863825 1261876918
-0.47461754 1.526739 -0.068732098 1261876918
-0.46495914 1.5262429 -0.068685174 1261876918
-0.45530742 1.5257466 -0.06863825 1261876918
-0.44490084 1.526739 -0.068732098 1261876918
-0.43451515 1.5257466 -0.06863825 1261876918
-0.424853 1.5262429 -0.068685174 1261942711
-0.41518402 1.526739 -0.068732098 1262403262
-0.40481186 1.5257466 -0.06863825 1262863813
-0.39514282 1.5262429 -0.068685174 1262798020
-0.38546744 1.5267389 -0.068732098 1262798020
-0.37510842 1.5257466 -0.06863825 1262863813
-0.36466572 1.526739 -0.068732098 1262863813
-0.35431615 1.5257467 -0.06863825 1262863813
-0.34463599 1.5262427 -0.068685174 1262863813
-0.33494887 1.526739 -0.068732098 1262863813
-0.32461303 1.5257466 -0.06863825 1262798020
-0.314926 1.5262429 -0.068685174 1262863813
-0.30523199 1.5267389 -0.068732098 1262798020
-0.29490986 1.5257466 -0.06863825 1262798020
-0.285216 1.5262429 -0.068685174 1262798020
-0.27551541 1.526739 -0.068732098 1262732227
-0.26520658 1.5257466 -0.06863825 1262732227
-0.25550601 1.5262427 -0.068685174 1262666434
-0.24510749 1.5262429 -0.068685174 1262666434
-0.23470901 1.5262427 -0.068685174 1262666434
-0.22499701 1.526739 -0.068732098 1262534848
-0.214711 1.5257466 -0.06863825 1262600641
-0.20499898 1.5262429 -0.068685174 1262600641
-0.1952803 1.526739 -0.068732098 1262600641
-0.18500771 1.5257467 -0.06863825 1262534848
-0.17528899 1.5262427 -0.068685174 1262600641
-0.1648905 1.5262427 -0.068685174 1262666434
-0.15449201 1.5262429 -0.068685174 1262666434
-0.145579 1.5262429 -0.068685174 1262600641
-0.13518038 1.5262429 -0.068685174 1262600641
-0.124782 1.5262427 -0.068685174 1262600641
-0.115045 1.5267389 -0.068732098 1262666434
-0.104809 1.5257467 -0.06863825 1262600641
-0.095072001 1.5262429 -0.068685174 1262666434
-0.084673502 1.5262427 -0.068685174 1262600641
-0.074274994 1.5262429 -0.068685174 1262534848
-0.065361999 1.5262429 -0.068685174 1262271676
-0.054963496 1.5262429 -0.068685174 1262337469
-0.044565003 1.5262427 -0.068685174 1262403262
-0.035652 1.5262429 -0.068685174 1262534848
-0.025253497 1.5262429 -0.068685174 1262600641
-0.014855001 1.5262427 -0.068685174 1262600641
-0.0059420001 1.5262429 -0.068685174 1262600641
0.0044564996 1.5262427 -0.068685174 1261679539
0.014855001 1.5262427 -0.068685174 1261679539
0.025253501 1.5262427 -0.068685174 1261613746
0.035652 1.5262427 -0.068685174 1261482160
0.044564996 1.5262429 -0.068685174 1261547953
0.054963499 1.5262429 -0.068685174 1261613746
0.065361999 1.5262427 -0.068685174 1261613746
0.074274994 1.5262429 -0.068685174 1261745332
0.084673502 1.5262427 -0.068685174 1261679539
0.095072001 1.5262427 -0.068685174 1261745332
0.104809 1.5257467 -0.06863825 1261745332
0.115045 1.5267389 -0.068732098 1261679539
0.124782 1.5262427 -0.068685174 1261745332
0.1351805 1.5262427 -0.068685174 1261745332
0.145579 1.5262427 -0.068685174 1261679539
0.15449201 1.5262427 -0.068685174 1261679539
0.1648905 1.5262427 -0.068685174 1261745332
0.17528899 1.5262429 -0.068685174 1261745332
0.18500771 1.5257466 -0.06863825 1261745332
0.1952803 1.526739 -0.068732098 1261613746
0.20499901 1.5262427 -0.068685174 1261679539
0.21471098 1.5257466 -0.06863825 1261745332
0.22499701 1.526739 -0.068732098 1261745332
0.23470901 1.5262429 -0.068685174 1261811125
0.24510749 1.5262427 -0.068685174 1261811125
0.25550601 1.5262427 -0.068685174 1261811125
0.26520658 1.5257466 -0.06863825 1261745332
0.27551541 1.5267389 -0.068732098 1261679539
0.285216 1.5262429 -0.068685174 1261613746
0.29490986 1.5257466 -0.06863825 1261876918
0.30523211 1.5267389 -0.068732098 1261811125
0.314926 1.5262427 -0.068685174 1261876918
0.32461315 1.5257467 -0.06863825 1261876918
0.33494902 1.526739 -0.068732098 1261876918
0.34463596 1.5262427 -0.068685174 1261876918
0.35431641 1.5257466 -0.06863825 1261876918
0.36466572 1.526739 -0.068732098 1261811125
0.37510872 1.5257466 -0.06863825 1261876918
0.38546744 1.5267389 -0.068732098 1261876918
0.39514282 1.5262427 -0.068685174 1261876918
0.40481186 1.5257466 -0.06863825 1261876918
0.41518402 1.526739 -0.068732098 1262534848
0.424853 1.5262429 -0.068685174 1262863813
0.43451515 1.5257466 -0.06863825 1262798020
0.44490084 1.526739 -0.068732098 1262863813
0.45530742 1.5257466 -0.06863825 1262863813
0.46495914 1.5262429 -0.068685174 1262863813
0.47461754 1.5267389 -0.068732098 1262863813
0.48501071 1.5257466 -0.06863825 1262863813
0.49541929 1.526739 -0.068732098 1262863813
0.50506985 1.5262429 -0.068685174 1262863813
0.51471394 1.5257466 -0.06863825 1262863813
0.52513582 1.5267389 -0.068732098 1262798020
0.53550631 1.5257466 -0.06863825 1262732227
0.54517597 1.5262429 -0.068685174 1262798020
0.55485272 1.5267389 -0.068732098 1262732227
0.56520945 1.5257466 -0.06863825 1262732227
0.57488602 1.5262427 -0.068685174 1262666434
0.58456957 1.5267389 -0.068732098 1262666434
0.59491259 1.5257467 -0.06863825 1262666434
0.6045962 1.5262427 -0.068685174 1262600641
0.61499447 1.5262427 -0.068685174 1262600641
0.62539297 1.5262429 -0.068685174 1262600641
0.63508785 1.526739 -0.068732098 1262600641
0.64540815 1.5257466 -0.06863825 1262534848
0.65510303 1.5262429 -0.068685174 1262666434
0.66480476 1.5267389 -0.068732098 1262666434
0.67511141 1.5257467 -0.06863825 1262666434
0.6848132 1.5262429 -0.068685174 1262600641
0.69452137 1.526739 -0.068732098 1262600641
0.70481485 1.5257466 -0.06863825 1262666434
0.71452308 1.5262429 -0.068685174 1262666434
0.72492164 1.5262429 -0.068685174 1262600641
0.73532015 1.5262427 -0.068685174 1262666434
0.74503982 1.526739 -0.068732098 1262600641
0.75463396 1.5262427 -0.068685174 1262534848
-0.76272053 1.5367069 -0.069674671 1261547953
-0.75525767 1.5367069 -0.069674671 1261547953
-0.74480951 1.5367069 -0.069674671 1261679539
-0.73436099 1.5367069 -0.069674671 1261745332
-0.72540569 1.5367069 -0.069674671 1261745332
-0.71495748 1.5367069 -0.069674671 1261679539
-0.70450902 1.5367069 -0.069674671 1261745332
-0.69555336 1.5367069 -0.069674671 1261745332
-0.6851052 1.5367069 -0.069674671 1261745332
-0.67465705 1.5367069 -0.069674671 1261745332
-0.66570133 1.5367069 -0.069674671 1261745332
-0.65525323 1.5367069 -0.069674671 1261745332
-0.64480501 1.5367069 -0.069674671 1261811125
-0.6358493 1.5367069 -0.069674671 1261811125
-0.62540126 1.5367069 -0.069674671 1261745332
-0.61495298 1.5367069 -0.069674671 1261811125
-0.60450453 1.5367069 -0.069674671 1261745332
-0.59405631 1.5367069 -0.069674671 1261811125
-0.58510101 1.5367069 -0.069674671 1261876918
-0.57465249 1.5367069 -0.069674671 1261876918
-0.56420428 1.5367069 -0.069674671 1261745332
-0.55524868 1.5367069 -0.069674671 1261745332
-0.54480052 1.5367069 -0.069674671 1261745332
-0.534352 1.5367069 -0.069674671 1261876918
-0.52539665 1.5367069 -0.069674671 1261745332
-0.51494849 1.5367069 -0.069674671 1261679539
-0.50449997 1.5367069 -0.069674671 1261811125
-0.49554467 1.5367069 -0.069674671 1261745332
-0.48509651 1.5367069 -0.069674671 1261876918
-0.474648 1.5367069 -0.069674671 1261942711
-0.46569237 1.5367069 -0.069674671 1261876918
-0.45524424 1.5367069 -0.069674671 1261876918
-0.444796 1.5367069 -0.069674671 1261876918
-0.43584034 1.5367069 -0.069674671 1261745332
-0.42539227 1.5367069 -0.069674671 1261876918
-0.41494402 1.5367064 -0.069674276 1262600641
-0.40449551 1.5367062 -0.069674075 1262798020
-0.39404735 1.5367063 -0.069674075 1262863813
-0.38509199 1.5367063 -0.069674075 1262798020
-0.3746435 1.5367062 -0.069674075 1262798020
-0.36419535 1.5367063 -0.069674075 1262863813
-0.35523966 1.5367063 -0.069674075 1262798020
-0.3447915 1.5367062 -0.069674075 1262863813
-0.33434299 1.5367063 -0.069674075 1262798020
-0.32538769 1.5367063 -0.069674075 1262863813
-0.3149395 1.5367062 -0.069674075 1262863813
-0.30449101 1.5367063 -0.069674075 1262798020
-0.29553568 1.5367063 -0.069674075 1262798020
-0.2850875 1.5367062 -0.069674075 1262732227
-0.27463901 1.5367063 -0.069674075 1262666434
-0.26568332 1.5367063 -0.069674075 1262600641
-0.25523525 1.5367062 -0.069674075 1262600641
-0.24478699 1.5367063 -0.069674075 1262600641
-0.23583134 1.5367063 -0.069674075 1262534848
-0.22538325 1.5367062 -0.069674075 1262534848
-0.214935 1.5367063 -0.069674075 1262534848
-0.20448674 1.5367062 -0.069674075 1262666434
-0.19403833 1.5367063 -0.069674075 1262600641
-0.18508299 1.5367063 -0.069674075 1262666434
-0.1746345 1.5367062 -0.069674075 1262600641
-0.16418634 1.5367063 -0.069674075 1262534848
-0.155231 1.5367063 -0.069674075 1262600641
-0.1447825 1.5367066 -0.069674373 1262469055
-0.13433434 1.5367069 -0.069674671 1262600641
-0.125379 1.5367069 -0.069674671 1262600641
-0.1149305 1.5367069 -0.069674671 1262666434
-0.104482 1.5367069 -0.069674671 1262666434
-0.095526665 1.5367069 -0.069674671 1262600641
-0.0850785 1.5367069 -0.069674671 1262600641
-0.07463 1.5367069 -0.069674671 1262534848
-0.065674663 1.5367069 -0.069674671 1262534848
-0.055226501 1.5367069 -0.069674671 1262469055
-0.044778001 1.5367069 -0.069674671 1262469055
-0.035822332 1.5367069 -0.069674671 1262600641
-0.02537425 1.5367069 -0.069674671 1262600641
-0.014926 1.5367069 -0.069674671 1262666434
-0.0059703332 1.5367069 -0.069674671 1262666434
0.00447775 1.5367069 -0.069674671 1261679539
0.014925999 1.5367069 -0.069674671 1261679539
0.02537425 1.5367069 -0.069674671 1261547953
0.035822332 1.5367069 -0.069674671 1261613746
0.044778001 1.5367069 -0.069674671 1261547953
0.055226501 1.5367069 -0.069674671 1261613746
0.065674663 1.5367069 -0.069674671 1261613746
0.07463 1.5367069 -0.069674671 1261547953
0.0850785 1.5367069 -0.069674671 1261679539
0.095526665 1.5367069 -0.069674671 1261745332
0.104482 1.5367069 -0.069674671 1261745332
0.1149305 1.5367069 -0.069674671 1261745332
0.125379 1.5367069 -0.069674671 1261745332
0.13433433 1.5367069 -0.069674671 1261811125
0.1447825 1.5367069 -0.069674671 1261745332
0.155231 1.5367069 -0.069674671 1261745332
0.16418634 1.5367069 -0.069674671 1261745332
0.1746345 1.5367069 -0.069674671 1261745332
0.18508299 1.5367069 -0.069674671 1261811125
0.19403867 1.5367069 -0.069674671 1261811125
0.20448674 1.5367069 -0.069674671 1261745332
0.214935 1.5367069 -0.069674671 1261811125
0.22538327 1.5367069 -0.069674671 1261745332
0.23583134 1.5367069 -0.069674671 1261811125
0.24478699 1.5367069 -0.069674671 1261876918
0.25523525 1.5367069 -0.069674671 1261876918
0.26568368 1.5367069 -0.069674671 1261745332
0.27463901 1.5367069 -0.069674671 1261679539
0.2850875 1.5367069 -0.069674671 1261745332
0.29553568 1.5367069 -0.069674671 1261876918
0.30449101 1.5367069 -0.069674671 1261745332
0.3149395 1.5367069 -0.069674671 1261679539
0.32538769 1.5367069 -0.069674671 1261811125
0.33434331 1.5367069 -0.069674671 1261745332
0.3447915 1.5367069 -0.069674671 1261876918
0.35523999 1.5367069 -0.069674671 1261942711
0.36419535 1.5367069 -0.069674671 1261876918
0.3746435 1.5367069 -0.069674671 1261876918
0.38509199 1.5367069 -0.069674671 1261876918
0.39404735 1.5367069 -0.069674671 1261745332
0.40449575 1.5367069 -0.069674671 1261942711
0.41494402 1.5367069 -0.069674671 1262534848
0.42539224 1.5367069 -0.069674671 1262798020
0.43584034 1.5367069 -0.069674671 1262863813
0.444796 1.5367069 -0.069674671 1262798020
0.45524427 1.5367069 -0.069674671 1262798020
0.46569237 1.5367069 -0.069674671 1262863813
0.474648 1.5367064 -0.069674276 1262798020
0.48509625 1.5367062 -0.069674075 1262798020
0.49554431 1.5367063 -0.069674075 1262798020
0.50449997 1.5367063 -0.069674075 1262798020
0.51494849 1.5367062 -0.069674075 1262863813
0.52539665 1.5367063 -0.069674075 1262798020
0.534352 1.5367063 -0.069674075 1262732227
0.54480052 1.5367062 -0.069674075 1262732227
0.55524868 1.5367063 -0.069674075 1262666434
0.56420398 1.5367063 -0.069674075 1262600641
0.57465249 1.5367062 -0.069674075 1262600641
0.58510071 1.5367063 -0.069674075 1262600641
0.59405601 1.5367063 -0.069674075 1262469055
0.60450453 1.5367062 -0.069674075 1262534848
0.61495298 1.5367063 -0.069674075 1262534848
0.62540102 1.5367062 -0.069674075 1262600641
0.635849 1.5367063 -0.069674075 1262600641
0.64480501 1.5367063 -0.069674075 1262666434
0.65525299 1.5367062 -0.069674075 1262600641
0.66570133 1.5367064 -0.069674276 1262600641
0.67465705 1.5367069 -0.069674671 1262600641
0.68510526 1.5367069 -0.069674671 1262534848
0.6955533 1.5367069 -0.069674671 1262600641
0.70450902 1.5367069 -0.069674671 1262600641
0.71495748 1.5367069 -0.069674671 1262666434
0.72540569 1.5367069 -0.069674671 1262600641
0.73436099 1.5367069 -0.069674671 1262600641
0.74480951 1.5367069 -0.069674671 1262600641
0.75525767 1.5367069 -0.069674671 1262534848
0.76122802 1.5367069 -0.069674671 1262534848
-0.69246781 1.3365598 -0.050745048 1262403262
-0.68494201 1.3359808 -0.050690323 1262469055
-0.67544746 1.3359807 -0.050690323 1262534848
-0.66459715 1.3359807 -0.050690323 1262600641
-0.65438688 1.3355669 -0.050651234 1262534848
-0.64496797 1.3363944 -0.050729413 1262600641
-0.63475776 1.3359807 -0.050690323 1262534848
-0.6245538 1.3355671 -0.050651234 1262600641
-0.61512262 1.3363944 -0.050729413 1262666434
-0.60491866 1.3359807 -0.050690323 1262600641
-0.5947209 1.3355669 -0.050651234 1262732227
-0.58527726 1.3363943 -0.050729413 1262732227
-0.57507944 1.3359807 -0.050690323 1262666434
-0.564888 1.3355671 -0.050651234 1262666434
-0.55543184 1.3363944 -0.050729413 1262666434
-0.54524034 1.3359807 -0.050690323 1262600641
-0.53505504 1.3355669 -0.050651234 1262732227
-0.52489752 1.3359807 -0.050690323 1262666434
-0.51473367 1.3363943 -0.050729413 1262732227
-0.50522196 1.3355671 -0.050651234 1262732227
-0.49505836 1.3359808 -0.050690323 1262534848
-0.4848884 1.3363944 -0.050729413 1262666434
-0.47538915 1.3355669 -0.050651234 1262666434
-0.46521926 1.3359807 -0.050690323 1262732227
-0.45504299 1.3363944 -0.050729413 1262666434
-0.4448725 1.3359807 -0.050690323 1262732227
-0.4347077 1.3355671 -0.050651234 1262732227
-0.42519787 1.3363943 -0.050729413 1262666434
-0.41503325 1.3359807 -0.050690323 1262205883
-0.40487501 1.3355671 -0.050651234 1261745332
-0.39469039 1.3359807 -0.050690323 1261745332
-0.3844997 1.3363944 -0.050729413 1261679539
-0.37504187 1.3355669 -0.050651234 1261811125
-0.36485127 1.3359807 -0.050690323 1261745332
-0.35465446 1.3363944 -0.050729413 1261811125
-0.34520903 1.3355671 -0.050651234 1261745332
-0.33501226 1.3359807 -0.050690323 1261745332
-0.32480901 1.3363943 -0.050729413 1261745332
-0.31537613 1.3355671 -0.050651234 1261679539
-0.30517298 1.3359807 -0.050690323 1261745332
-0.29496387 1.3363944 -0.050729413 1261679539
-0.28554299 1.3355669 -0.050651234 1261679539
-0.27533388 1.3359808 -0.050690323 1261745332
-0.26448324 1.3359807 -0.050690323 1261613746
-0.254989 1.3359808 -0.050690323 1261679539
-0.24549475 1.3359808 -0.050690323 1261613746
-0.234644 1.3359807 -0.050690323 1261153195
-0.22442043 1.3363943 -0.050729413 1261416367
-0.21502872 1.3355671 -0.050651234 1261416367
-0.20480514 1.3359807 -0.050690323 1261613746
-0.194575 1.3363943 -0.050729413 1261482160
-0.18519585 1.3355671 -0.050651234 1261613746
-0.17496587 1.3359807 -0.050690323 1261547953
-0.16472957 1.3363943 -0.050729413 1261547953
-0.15536286 1.3355669 -0.050651234 1261613746
-0.14512663 1.3359807 -0.050690323 1261547953
-0.13427612 1.3359807 -0.050690323 1261547953
-0.12478184 1.3359808 -0.050690323 1261482160
-0.11528762 1.3359807 -0.050690323 1261547953
-0.104437 1.3359807 -0.050690323 1261613746
-0.094942667 1.3359808 -0.050690323 1261547953
-0.085448503 1.3359807 -0.050690323 1261547953
-0.07459788 1.3359807 -0.050690323 1261482160
-0.065103665 1.3359808 -0.050690323 1261416367
-0.055609375 1.3359807 -0.050690323 1261350574
-0.044758625 1.3359807 -0.050690323 1261482160
-0.035264499 1.3359808 -0.050690323 1261547953
-0.025770126 1.3359808 -0.050690323 1261416367
-0.014919499 1.3359807 -0.050690323 1261416367
-0.0054253335 1.3359808 -0.050690323 1261547953
0.004069 1.3359807 -0.050690323 1262534848
0.0149195 1.3359807 -0.050690323 1262534848
0.025770124 1.3359807 -0.050690323 1262469055
0.035264503 1.3359808 -0.050690323 1262403262
0.044758625 1.3359807 -0.050690323 1262534848
0.055609375 1.3359808 -0.050690323 1262666434
0.065103672 1.3359808 -0.050690323 1262534848
0.07459788 1.3359807 -0.050690323 1262469055
0.085448496 1.3359807 -0.050690323 1262600641
0.094942667 1.3359808 -0.050690323 1262600641
0.104437 1.3359807 -0.050690323 1262666434
0.11528762 1.3359807 -0.050690323 1262534848
0.12478182 1.3359808 -0.050690323 1262403262
0.13427612 1.3359807 -0.050690323 1262337469
0.14512663 1.3359807 -0.050690323 1262469055
0.15536284 1.3355669 -0.050651234 1262600641
0.16472958 1.3363943 -0.050729413 1262600641
0.17496587 1.3359807 -0.050690323 1262534848
0.18519585 1.3355671 -0.050651234 1262534848
0.194575 1.3363944 -0.050729413 1262534848
0.20480512 1.3359807 -0.050690323 1262600641
0.21502872 1.3355671 -0.050651234 1262666434
0.22442043 1.3363944 -0.050729413 1262600641
0.234644 1.3359807 -0.050690323 1262732227
0.24549475 1.3359807 -0.050690323 1262732227
0.254989 1.3359808 -0.050690323 1262600641
0.26448324 1.3359807 -0.050690323 1262666434
0.27533388 1.3359807 -0.050690323 1262666434
0.28554302 1.3355671 -0.050651234 1262600641
0.29496384 1.3363943 -0.050729413 1262732227
0.30517301 1.3359807 -0.050690323 1262666434
0.31537619 1.3355669 -0.050651234 1262732227
0.32480901 1.3363944 -0.050729413 1262600641
0.33501226 1.3359807 -0.050690323 1262666434
0.34520897 1.3355669 -0.050651234 1262666434
0.35465446 1.3363944 -0.050729413 1262666434
0.36485127 1.3359807 -0.050690323 1262666434
0.37504187 1.3355671 -0.050651234 1262666434
0.38449976 1.3363944 -0.050729413 1262732227
0.39469036 1.3359807 -0.050690323 1262732227
0.40487483 1.3355669 -0.050651234 1262732227
0.41503337 1.3359807 -0.050690323 1262008504
0.42519784 1.3363944 -0.050729413 1261745332
0.43470785 1.3355671 -0.050651234 1261745332
0.4448725 1.3359807 -0.050690323 1261745332
0.45504314 1.3363943 -0.050729413 1261811125
0.46521926 1.3359807 -0.050690323 1261745332
0.47538927 1.3355669 -0.050651234 1261745332
0.48488858 1.3363944 -0.050729413 1261745332
0.49505848 1.3359807 -0.050690323 1261745332
0.50522214 1.3355671 -0.050651234 1261745332
0.51473385 1.3363943 -0.050729413 1261679539
0.52489763 1.3359807 -0.050690323 1261745332
0.53505516 1.3355669 -0.050651234 1261679539
0.54524064 1.3359807 -0.050690323 1261679539
0.55543202 1.3363943 -0.050729413 1261679539
0.56488812 1.3355671 -0.050651234 1261613746
0.57507962 1.3359807 -0.050690323 1261613746
0.58527726 1.3363943 -0.050729413 1261547953
0.5947212 1.3355669 -0.050651234 1261153195
0.6049186 1.3359807 -0.050690323 1261416367
0.61512274 1.3363944 -0.050729413 1261482160
0.62455398 1.3355671 -0.050651234 1261613746
0.63475788 1.3359807 -0.050690323 1261482160
0.64496809 1.3363944 -0.050729413 1261613746
0.654387 1.3355671 -0.050651234 1261547953
0.66459721 1.3359807 -0.050690323 1261547953
0.67544758 1.3359807 -0.050690323 1261613746
0.68494201 1.3359808 -0.050690323 1261482160
0.6911543 1.3369459 -0.050781529 1261613746
-0.69474465 1.3447007 -0.051514804 1262600641
-0.68520904 1.3447007 -0.051514804 1262600641
-0.67431104 1.3447007 -0.051514804 1262534848
-0.66477537 1.3447007 -0.051514804 1262534848
-0.65523952 1.3447007 -0.051514804 1262600641
-0.64434153 1.3447007 -0.051514804 1262732227
-0.63480568 1.3447007 -0.051514804 1262600641
-0.62526995 1.3447007 -0.051514804 1262666434
-0.61437201 1.3447007 -0.051514804 1262732227
-0.6048367 1.3447007 -0.051514804 1262666434
-0.59530097 1.3447007 -0.051514804 1262534848
-0.58440304 1.3447007 -0.051514804 1262666434
-0.57486731 1.3447007 -0.051514804 1262666434
-0.56533152 1.3447007 -0.051514804 1262798020
-0.55443347 1.3447007 -0.051514804 1262798020
-0.54489762 1.3447007 -0.051514804 1262600641
-0.53536201 1.3447007 -0.051514804 1262666434
-0.52446395 1.3447007 -0.051514804 1262600641
-0.51492834 1.3447007 -0.051514804 1262666434
-0.50539249 1.3447007 -0.051514804 1262732227
-0.4944945 1.3447007 -0.051514804 1262798020
-0.48495901 1.3447007 -0.051514804 1262732227
-0.47542349 1.3447007 -0.051514804 1262732227
-0.46452549 1.3447007 -0.051514804 1262798020
-0.45498967 1.3447007 -0.051514804 1262732227
-0.445454 1.3447007 -0.051514804 1262666434
-0.43455601 1.3447007 -0.051514804 1262666434
-0.42502034 1.3447007 -0.051514804 1262666434
-0.41548452 1.3447007 -0.051514804 1262271676
-0.40458649 1.3447007 -0.051514804 1261679539
-0.39505067 1.3447007 -0.051514804 1261811125
-0.38551497 1.3447007 -0.051514804 1261745332
-0.37461749 1.3447007 -0.051514804 1261811125
-0.36508167 1.3447007 -0.051514804 1261745332
-0.355546 1.3447007 -0.051514804 1261811125
-0.344648 1.3447007 -0.051514804 1261811125
-0.33511233 1.3447007 -0.051514804 1261811125
-0.32557651 1.3447007 -0.051514804 1261679539
-0.31467849 1.3447007 -0.051514804 1261745332
-0.30514267 1.3447007 -0.051514804 1261745332
-0.295607 1.3447007 -0.051514804 1261679539
-0.28470901 1.3447007 -0.051514804 1261679539
-0.27517334 1.3447007 -0.051514804 1261745332
-0.26563749 1.3447007 -0.051514804 1261745332
-0.25473949 1.3447007 -0.051514804 1261679539
-0.24520399 1.3447007 -0.051514804 1261547953
-0.2356685 1.3447007 -0.051514804 1261482160
-0.2247705 1.3447007 -0.051514804 1261482160
-0.21523465 1.3447007 -0.051514804 1261482160
-0.205699 1.3447007 -0.051514804 1261547953
-0.194801 1.3447007 -0.051514804 1261547953
-0.18526535 1.3447007 -0.051514804 1261613746
-0.1757295 1.3447007 -0.051514804 1261547953
-0.1648315 1.3447007 -0.051514804 1261613746
-0.15529567 1.3447007 -0.051514804 1261547953
-0.14576 1.3447007 -0.051514804 1261482160
-0.13486201 1.3447007 -0.051514804 1261547953
-0.12532634 1.3447007 -0.051514804 1261547953
-0.11579099 1.3447007 -0.051514804 1261482160
-0.104893 1.3447007 -0.051514804 1261613746
-0.095357336 1.3447007 -0.051514804 1261547953
-0.085821494 1.3447007 -0.051514804 1261613746
-0.0749235 1.3447007 -0.051514804 1261679539
-0.065387666 1.3447007 -0.051514804 1261416367
-0.055851996 1.3447007 -0.051514804 1261482160
-0.044954002 1.3447007 -0.051514804 1261482160
-0.035418335 1.3447007 -0.051514804 1261613746
-0.025882501 1.3447007 -0.051514804 1261482160
-0.0149845 1.3447007 -0.051514804 1261613746
-0.0054486669 1.3447007 -0.051514804 1261679539
0.0040865 1.3447007 -0.051514804 1262534848
0.0149845 1.3447007 -0.051514804 1262403262
0.025882499 1.3447007 -0.051514804 1262469055
0.035418335 1.3447007 -0.051514804 1262403262
0.044954002 1.3447007 -0.051514804 1262469055
0.055852 1.3447007 -0.051514804 1262534848
0.065387666 1.3447007 -0.051514804 1262666434
0.0749235 1.3447007 -0.051514804 1262600641
0.085821502 1.3447007 -0.051514804 1262600641
0.095357336 1.3447007 -0.051514804 1262666434
0.104893 1.3447007 -0.051514804 1262732227
0.11579099 1.3447007 -0.051514804 1262600641
0.12532634 1.3447007 -0.051514804 1262469055
0.13486201 1.3447007 -0.051514804 1262600641
0.14576 1.3447007 -0.051514804 1262600641
0.15529567 1.3447007 -0.051514804 1262534848
0.1648315 1.3447007 -0.051514804 1262534848
0.1757295 1.3447007 -0.051514804 1262600641
0.18526535 1.3447007 -0.051514804 1262732227
0.194801 1.3447007 -0.051514804 1262600641
0.205699 1.3447007 -0.051514804 1262732227
0.21523465 1.3447007 -0.051514804 1262666434
0.2247705 1.3447007 -0.051514804 1262666434
0.23566851 1.3447007 -0.051514804 1262600641
0.24520399 1.3447007 -0.051514804 1262666434
0.25473949 1.3447007 -0.051514804 1262666434
0.26563749 1.3447007 -0.051514804 1262798020
0.27517334 1.3447007 -0.051514804 1262732227
0.28470901 1.3447007 -0.051514804 1262600641
0.295607 1.3447007 -0.051514804 1262666434
0.30514267 1.3447007 -0.051514804 1262600641
0.31467849 1.3447007 -0.051514804 1262666434
0.32557648 1.3447007 -0.051514804 1262732227
0.33511233 1.3447007 -0.051514804 1262798020
0.344648 1.3447007 -0.051514804 1262732227
0.355546 1.3447007 -0.051514804 1262732227
0.36508131 1.3447007 -0.051514804 1262798020
0.37461704 1.3447007 -0.051514804 1262732227
0.385515 1.3447007 -0.051514804 1262666434
0.39505067 1.3447007 -0.051514804 1262732227
