# .PCD v0.7 - Point Cloud Data file format
VERSION 0.7
FIELDS x y z
SIZE 4 4 4
TYPE F F F
COUNT 1 1 1
WIDTH 1374
HEIGHT 1
VIEWPOINT 0 0 0 1 0 0 0
POINTS 1374
DATA ascii
0.10929751 1.015172 -0.020347029
0.12979083 1.015172 -0.020347029
0.15028411 1.015172 -0.020347029
0.17022881 1.015052 -0.020335674
0.18954223 1.015292 -0.020358384
0.20948698 1.015172 -0.020347029
0.22998016 1.0151719 -0.020347029
0.25047347 1.015172 -0.020347029
0.27041095 1.015052 -0.020335674
0.28973877 1.015292 -0.020358384
-0.28983352 1.0294961 -0.021702144
-0.26984885 1.0295936 -0.021711344
-0.24986053 1.0296893 -0.02172038
-0.23012497 1.0294963 -0.021702144
-0.2101368 1.0295936 -0.021711256
-0.189927 1.0294992 -0.021702236
-0.16994716 1.0295922 -0.021711027
-0.14996402 1.0296875 -0.021720089
-0.13830586 1.0278157 -0.021543
0.079988003 1.0213125 -0.020928204
0.090219416 1.0294937 -0.021701701
0.11001528 1.0294037 -0.021693235
0.12998876 1.0294971 -0.021702081
0.149964 1.0296874 -0.021720089
0.16994716 1.0295922 -0.021711027
0.18992697 1.0294991 -0.021702236
0.21013676 1.0295936 -0.021711186
0.23012488 1.0294966 -0.021701982
0.24986053 1.0296892 -0.021720236
0.26984882 1.0295936 -0.021711186
0.28983346 1.0294964 -0.021701982
-0.13939267 1.0491827 -0.0235641
-0.29016915 1.050703 -0.023707889
-0.2701838 1.050505 -0.023689175
-0.24994954 1.0506049 -0.0236986
-0.22995141 1.0505025 -0.023688879
-0.21019149 1.0507041 -0.023707816
-0.19019458 1.0503073 -0.023670308
-0.16996494 1.0507975 -0.023716623
-0.14996944 1.0506055 -0.023698488
0.091148853 1.0504954 -0.023688102
0.10996391 1.0509086 -0.023727139
0.12998091 1.0504104 -0.023680063
0.14996943 1.0506055 -0.023698488
0.16996495 1.0507972 -0.023716623
0.19019458 1.0503074 -0.023670308
0.21019149 1.0507038 -0.023707816
0.22995147 1.0505019 -0.023688739
0.24994951 1.0506049 -0.023698431
0.27018377 1.0505054 -0.02368902
0.29016912 1.0507027 -0.023707718
-0.26981917 1.069702 -0.025504805
-0.22985089 1.0697019 -0.025504805
-0.18988253 1.0697016 -0.025504805
-0.14991425 1.069702 -0.025504805
0.090529829 1.0699577 -0.025529012
0.1099459 1.0697019 -0.025504805
0.14991426 1.0697018 -0.025504805
0.18988253 1.0697019 -0.025504805
0.22985087 1.0697017 -0.025504805
0.26981914 1.0697018 -0.025504805
-0.29010636 1.0700202 -0.02553492
-0.24983969 1.0702139 -0.025553219
-0.20985958 1.0702137 -0.025553219
-0.1698795 1.070214 -0.025553219
-0.139258 1.0764958 -0.026147366
0.12989932 1.0702138 -0.025553219
0.1698795 1.070214 -0.025553219
0.20985959 1.070214 -0.025553219
0.24983969 1.0702138 -0.025553219
0.29010636 1.0700203 -0.02553492
-0.29015234 1.0897702 -0.027403304
-0.27017009 1.0896682 -0.027393647
-0.24996303 1.0898759 -0.027413299
-0.22997475 1.0894532 -0.027373314
-0.19002524 1.0896639 -0.02739325
-0.17004788 1.0897719 -0.027403468
-0.15006725 1.0898759 -0.027413305
-0.139787 1.0830994 -0.026772439
0.091107421 1.0894188 -0.02737009
0.13010307 1.0894531 -0.027373314
0.15006725 1.0898761 -0.027413294
0.17004789 1.0897719 -0.027403474
0.19002526 1.089664 -0.02739325
0.22997467 1.0894531 -0.027373314
0.24996299 1.0898759 -0.027413305
0.27017003 1.0896682 -0.027393635
0.29015228 1.0897701 -0.027403302
-0.21000865 1.0900891 -0.027433459
0.11010072 1.0900886 -0.027433459
0.21000865 1.0900888 -0.027433459
-0.24990226 1.109955 -0.029312778
-0.23005672 1.1098175 -0.029299773
-0.16991806 1.109818 -0.029299773
0.10977926 1.109818 -0.029299773
0.16991808 1.1098175 -0.029299773
0.23005669 1.109818 -0.029299773
0.24990226 1.109955 -0.029312778
-0.28990027 1.110025 -0.029319385
-0.26975238 1.1100931 -0.029325828
-0.21020544 1.1102318 -0.029338943
-0.19005832 1.1100235 -0.029319277
-0.15005262 1.110232 -0.029338943
-0.1395375 1.110013 -0.029318422
0.090500422 1.1102446 -0.02934015
0.12991261 1.1100236 -0.029319277
0.15005262 1.1102318 -0.029338943
0.19005828 1.1100237 -0.029319277
0.21020544 1.1102318 -0.029338943
0.26975238 1.1100928 -0.029325828
0.28990021 1.1100246 -0.029319385
-0.28983158 0.90994287 -0.010394202
-0.24991482 0.90994477 -0.010394386
-0.21000633 0.90994203 -0.010394145
-0.14982806 0.90979052 -0.010379774
0.074863128 0.90971929 -0.010373083
0.089860387 0.90986311 -0.010386695
0.14982805 0.9097901 -0.010379774
0.21000633 0.90994179 -0.010394145
0.24991487 0.9099443 -0.010394386
0.28983155 0.90994269 -0.010394202
-0.26997924 0.91001809 -0.010401377
-0.22985803 0.91009676 -0.010408754
-0.18994594 0.91001892 -0.01040147
-0.16988279 0.91009432 -0.010408571
-0.13018902 0.91001874 -0.010401404
0.10991182 0.91001767 -0.010401339
0.12996893 0.91017485 -0.01041618
0.16988279 0.91009432 -0.010408571
0.18994595 0.9100194 -0.01040147
0.22985803 0.91009635 -0.010408754
0.26997924 0.91001832 -0.010401377
-0.26980883 0.9299264 -0.012284623
-0.23000048 0.92995775 -0.012287607
-0.21018694 0.92989165 -0.012281319
-0.14985248 0.92986006 -0.012278347
-0.13109125 0.92960876 -0.012254581
0.07622581 0.92920393 -0.012216307
0.11022976 0.92999184 -0.012290806
0.12986384 0.92982525 -0.012275046
0.1498525 0.92986017 -0.012278347
0.21018693 0.92989165 -0.012281319
0.2300005 0.92995787 -0.012287607
0.26980883 0.92992681 -0.012284623
-0.2899788 0.93005764 -0.012297059
-0.24981654 0.93002522 -0.012293932
-0.19001958 0.93008929 -0.012300029
-0.16984421 0.93002504 -0.012293932
0.090223245 0.93028224 -0.012318253
0.16984424 0.93002498 -0.012293932
0.19001962 0.93008935 -0.012300029
0.24981654 0.93002474 -0.012293932
0.28997877 0.93005806 -0.012297059
-0.29006124 0.95046228 -0.014226695
-0.27013984 0.9504624 -0.014226735
-0.25021595 0.95038068 -0.014218963
-0.23007584 0.95029908 -0.014211261
-0.20994222 0.95062739 -0.014242282
-0.19001755 0.95046258 -0.014226735
-0.17009471 0.9505443 -0.014234473
-0.14995469 0.95046228 -0.014226695
-0.13289268 0.95010936 -0.014193319
0.076620802 0.95046276 -0.014226735
0.089755736 0.95046252 -0.014226735
0.10968402 0.9502992 -0.014211261
0.12981792 0.95038033 -0.014218963
0.14995471 0.95046282 -0.014226695
0.17009474 0.95054436 -0.014234473
0.19001754 0.95046258 -0.014226735
0.20994218 0.95062697 -0.014242282
0.23007584 0.95029896 -0.014211261
0.25021595 0.9503808 -0.014218963
0.27013987 0.95046252 -0.014226735
0.29006124 0.95046216 -0.014226695
-0.29017034 0.96954304 -0.016031409
-0.27001536 0.96937495 -0.016015561
-0.24985817 0.96954292 -0.016031409
-0.22992244 0.96954286 -0.016031409
-0.20998685 0.96954262 -0.016031409
-0.19005109 0.96954304 -0.016031409
-0.1701156 0.96954244 -0.016031409
-0.1501798 0.96954262 -0.016031409
-0.13415875 0.96882695 -0.015963688
0.077636093 0.96793181 -0.015879041
0.09037292 0.96954262 -0.016031409
0.11030848 0.96954286 -0.016031409
0.1302443 0.9695428 -0.016031409
0.15017977 0.96954286 -0.016031409
0.1701156 0.96954292 -0.016031409
0.19005114 0.96954268 -0.016031409
0.2099869 0.9695425 -0.016031409
0.22992244 0.96954262 -0.016031409
0.24985816 0.9695428 -0.016031409
0.27001539 0.96937519 -0.016015561
0.29017037 0.96954322 -0.016031409
-0.29006016 0.98908019 -0.01787908
-0.26988563 0.98908007 -0.01787908
-0.24993534 0.98908067 -0.017879127
-0.22998522 0.98907995 -0.01787908
-0.21003413 0.98898989 -0.017870609
-0.19008572 0.98908031 -0.01787908
-0.17013846 0.98889977 -0.017862042
-0.15018728 0.98908013 -0.01787908
-0.13561691 0.98908007 -0.01787908
0.078456201 0.98908013 -0.01787908
0.089664027 0.98907971 -0.01787908
0.10983851 0.98908031 -0.01787908
0.13001297 0.98908019 -0.01787908
0.15018728 0.98908031 -0.01787908
0.17013846 0.98889941 -0.017862042
0.19008572 0.98908049 -0.01787908
0.21003413 0.98899037 -0.017870609
0.22998524 0.98907989 -0.01787908
0.24993539 0.98908049 -0.017879127
0.26988563 0.98908013 -0.01787908
0.29006019 0.98907954 -0.01787908
-0.29007283 1.0051919 -0.019403063
-0.27008173 1.005037 -0.019388398
-0.25008944 1.0050375 -0.019388407
-0.23009729 1.005037 -0.019388398
-0.21011549 1.004882 -0.019373722
-0.19011468 1.0050372 -0.019388398
-0.16974527 1.0050372 -0.019388398
-0.14973697 1.005192 -0.019403063
-0.13647711 1.0041413 -0.019303633
0.079214334 1.005037 -0.019388398
0.090530738 1.0050371 -0.019388398
0.11054088 1.0048821 -0.019373722
0.13013615 1.0050373 -0.019388407
0.14973696 1.005192 -0.019403063
0.16974525 1.005037 -0.019388398
0.19011466 1.005037 -0.019388398
0.21011543 1.0048819 -0.019373722
0.23009728 1.0050371 -0.019388398
0.25008938 1.0050372 -0.019388407
0.27008173 1.0050374 -0.019388398
0.2900728 1.005192 -0.019403063
-0.28995642 0.81094766 -0.0010314485
-0.26995909 0.81094754 -0.0010314485
-0.24996199 0.81094754 -0.0010314485
-0.22996476 0.81094754 -0.0010314485
-0.20996752 0.81094748 -0.0010314485
-0.18997028 0.8109476 -0.0010314485
-0.16997312 0.81094724 -0.0010314485
-0.14997585 0.81094682 -0.0010314485
-0.12997867 0.81094766 -0.0010314485
-0.11277358 0.81032509 -0.00097258145
0.070802838 0.81046098 -0.0009854252
0.089984193 0.81094742 -0.0010314485
0.10998153 0.8109476 -0.0010314485
0.12997872 0.8109473 -0.0010314485
0.14997584 0.81094736 -0.0010314485
0.16997313 0.81094766 -0.0010314485
0.18997031 0.81094801 -0.0010314485
0.20996752 0.81094706 -0.0010314485
0.22996476 0.8109476 -0.0010314485
0.249962 0.81094748 -0.0010314485
0.26995915 0.81094766 -0.0010314485
0.28995645 0.81094742 -0.0010314485
-0.25000054 0.82999182 -0.0028326947
-0.23008116 0.82993668 -0.0028274707
-0.13014981 0.82999188 -0.0028326947
-0.11428837 0.82984263 -0.0028185707
0.11023475 0.82993644 -0.0028274707
0.1301498 0.82999182 -0.0028326947
0.23008113 0.82993686 -0.0028274707
0.25000051 0.82999194 -0.0028326947
-0.2898373 0.83004701 -0.0028378973
-0.26991877 0.83021033 -0.0028533451
-0.21016625 0.83015615 -0.002848227
-0.19007462 0.83007365 -0.0028404493
-0.16998655 0.83010155 -0.0028430617
-0.15006706 0.83004642 -0.0028378973
0.071912117 0.83007365 -0.0028404493
0.090143301 0.8300736 -0.0028404493
0.15006708 0.83004665 -0.0028378973
0.16998655 0.83010131 -0.0028430617
0.19007464 0.83007401 -0.0028404493
0.21016617 0.83015567 -0.002848227
0.2699188 0.83021021 -0.0028533451
0.2898373 0.83004689 -0.0028378973
-0.28989097 0.84984344 -0.0047101942
-0.2698788 0.84970391 -0.0046969703
-0.25004494 0.84958923 -0.004686119
-0.23002937 0.84967589 -0.0046943142
-0.20984708 0.84961951 -0.0046889936
-0.18984029 0.8497026 -0.0046968604
-0.17000128 0.84981859 -0.0047077956
-0.14998928 0.84967583 -0.0046943142
-0.12998451 0.84947485 -0.0046752938
-0.1157281 0.84937316 -0.0046656774
0.072361842 0.84937221 -0.0046655894
0.089777045 0.84996533 -0.0047217002
0.10980061 0.84970385 -0.0046969452
0.1299845 0.84947485 -0.0046752938
0.14998929 0.84967607 -0.0046943142
0.17000125 0.84981817 -0.0047077956
0.18984026 0.84970295 -0.0046968604
0.20984708 0.84961951 -0.0046889936
0.23002936 0.84967601 -0.0046943142
0.25004497 0.84958941 -0.004686119
0.26987883 0.84970355 -0.0046969703
0.28989097 0.84984362 -0.0047101942
-0.29011506 0.86985725 -0.0066030878
-0.27001515 0.86973989 -0.006591958
-0.25007772 0.86988723 -0.0066059064
-0.23015468 0.8697983 -0.0065974798
-0.21004798 0.86985791 -0.0066031371
-0.19011605 0.86976689 -0.0065945312
-0.17018826 0.86997491 -0.0066142073
-0.1500838 0.86974031 -0.0065920176
-0.12998028 0.86985636 -0.0066029914
-0.11685413 0.86855626 -0.0064799995
0.073623143 0.86962789 -0.0065813772
0.090129532 0.86962217 -0.0065808389
0.11004625 0.86994779 -0.0066116126
0.12998031 0.8698566 -0.0066029914
0.1500838 0.86974025 -0.0065920176
0.17018826 0.86997503 -0.0066142073
0.19011606 0.86976683 -0.0065945312
0.21004799 0.86985767 -0.0066031371
0.23015468 0.86979842 -0.0065974798
0.25007772 0.86988723 -0.0066059064
0.27001515 0.86973977 -0.006591958
0.29011506 0.86985767 -0.0066030878
-0.1184295 0.88881004 -0.0083956793
-0.28999564 0.89040166 -0.0085461885
-0.26997113 0.89070892 -0.0085752662
-0.24995092 0.8904016 -0.0085461885
-0.22992088 0.89046365 -0.0085521061
-0.20990428 0.8906467 -0.0085693486
-0.18987475 0.89046431 -0.0085521061
-0.16985339 0.8906464 -0.0085693486
-0.15000571 0.89030617 -0.0085371491
-0.12997654 0.89079624 -0.0085834926
0.074146412 0.89011902 -0.0085194651
0.089921713 0.89079624 -0.0085834926
0.10996362 0.89030588 -0.0085371491
0.12997654 0.89079601 -0.0085834926
0.1500057 0.89030617 -0.0085371491
0.1698534 0.89064658 -0.0085693486
0.18987481 0.89046454 -0.0085521061
0.20990427 0.89064628 -0.0085693486
0.22992088 0.89046419 -0.0085521061
0.24995093 0.8904016 -0.0085461885
0.26997116 0.89070892 -0.0085752662
0.28999567 0.89040148 -0.0085461885
-0.118974 0.90286642 -0.0097247958
-0.29013506 0.70980436 0.008534383
-0.27004829 0.70984024 0.0085310135
-0.2500951 0.70976728 0.0085379044
-0.23000707 0.70984066 0.0085309772
-0.20991577 0.7099129 0.0085241385
-0.19010024 0.70972925 0.0085415123
-0.17014451 0.70987684 0.0085275909
-0.15005544 0.70980442 0.0085343961
-0.13010328 0.70965785 0.0085482476
-0.1100138 0.70994776 0.0085208546
-0.089922935 0.70994961 0.0085206702
-0.07024911 0.70961648 0.0085522011
-0.050285637 0.70984018 0.0085310088
-0.029798854 0.70984024 0.0085310088
-0.010243357 0.7098403 0.0085310088
0.0093121426 0.70984054 0.0085310088
0.029798862 0.70984054 0.0085310088
0.050285626 0.7098403 0.0085310088
0.07024911 0.7096163 0.0085522011
0.089922927 0.70994991 0.0085206702
0.11001382 0.70994753 0.0085208546
0.13010328 0.70965832 0.0085482476
0.15005541 0.70980448 0.0085343961
0.17014448 0.70987624 0.0085275909
0.19010022 0.70972955 0.0085415123
0.2099158 0.70991254 0.0085241385
0.23000705 0.70984036 0.0085309772
0.25009513 0.70976746 0.0085379044
0.27004829 0.70984018 0.0085310135
0.29013515 0.70980442 0.008534383
-0.28991723 0.72921693 0.0066983625
-0.26995057 0.72917974 0.0067018787
-0.24998577 0.72914129 0.0067054918
-0.23001495 0.72921693 0.0066983239
-0.21005557 0.72921693 0.0066983434
-0.18994908 0.72918075 0.0067018047
-0.16998416 0.72921646 0.0066983905
-0.15001757 0.72925502 0.0066947341
-0.12991756 0.7289899 0.006719863
-0.10994632 0.7294448 0.0066768043
-0.090125613 0.72898704 0.006720128
-0.069883503 0.72921723 0.0066983188
-0.050051704 0.72921711 0.0066983188
-0.030219896 0.72921741 0.0066983188
-0.010388072 0.72921693 0.0066983188
0.009443704 0.72921711 0.0066983188
0.030219896 0.72921753 0.0066983188
0.050051704 0.72921729 0.0066983188
0.069883481 0.72921747 0.0066983188
0.090125591 0.72898668 0.006720128
0.10994632 0.72944468 0.0066768043
0.12991756 0.7289896 0.006719863
0.15001757 0.72925532 0.0066947341
0.16998413 0.72921664 0.0066983905
0.18994908 0.72918022 0.0067018047
0.21005557 0.72921699 0.0066983434
0.23001498 0.72921741 0.0066983239
0.2499858 0.72914124 0.0067054918
0.26995069 0.72917926 0.0067018787
0.28991726 0.72921675 0.0066983625
-0.28996542 0.74910921 0.0048169661
-0.26998731 0.74911058 0.0048168092
-0.25000852 0.74914974 0.0048131454
-0.23016891 0.74907035 0.0048206439
-0.21004765 0.74922812 0.0048057437
-0.18993919 0.74907017 0.0048206439
-0.17009079 0.74902892 0.004824548
-0.1501161 0.74926734 0.0048020161
-0.12999912 0.74903035 0.0048244228
-0.11001852 0.74922943 0.0048055821
-0.089906372 0.74907088 0.004820602
-0.070068531 0.74902809 0.0048246467
-0.049940281 0.74926329 0.0048023965
-0.029839925 0.74902815 0.0048246467
-0.010536999 0.7491495 0.0048131431
0.0095790923 0.74915004 0.0048131431
0.029839929 0.74902779 0.0048246467
0.049940281 0.74926293 0.0048023965
0.070068546 0.74902809 0.0048246467
0.08990638 0.74907094 0.004820602
0.11001852 0.74922967 0.0048055821
0.12999913 0.74903065 0.0048244228
0.15011612 0.74926752 0.0048020161
0.17009085 0.74902892 0.004824548
0.18993922 0.74907064 0.0048206439
0.21004759 0.74922788 0.0048057437
0.23016895 0.74907035 0.0048206439
0.25000852 0.74914986 0.0048131454
0.26998734 0.7491107 0.0048168092
0.28996539 0.74910969 0.0048169661
-0.29001677 0.76957965 0.0028809656
-0.270026 0.76978606 0.0028614518
-0.24989502 0.76962149 0.0028770501
-0.22976677 0.76957965 0.0028809656
-0.20991202 0.76966166 0.0028732109
-0.19005489 0.76953804 0.0028849144
-0.16993131 0.7697444 0.0028653864
-0.14993691 0.76970375 0.0028692374
-0.12994543 0.76953924 0.0028847896
-0.10995691 0.76953733 0.0028850117
-0.09009482 0.76986909 0.0028536047
-0.069834359 0.7695809 0.0028808559
-0.049708672 0.76953697 0.0028850117
-0.030126745 0.76966214 0.0028731737
-0.010690156 0.76966184 0.0028731737
0.0097183259 0.7696622 0.0028731737
0.030126741 0.76966208 0.0028731737
0.049708668 0.76953691 0.0028850117
0.069834359 0.76958102 0.0028808559
0.090094827 0.76986915 0.0028536047
0.10995693 0.76953691 0.0028850117
0.12994538 0.76953924 0.0028847896
0.14993693 0.76970375 0.0028692374
0.16993132 0.76974452 0.0028653864
0.19005488 0.76953816 0.0028849144
0.20991205 0.76966161 0.0028732109
0.22976674 0.76957965 0.0028809656
0.24989496 0.76962078 0.0028770501
0.27002603 0.76978624 0.0028614518
0.29001674 0.76957965 0.0028809656
-0.29006788 0.79065216 0.00088786334
-0.26992404 0.79090947 0.00086353027
-0.24991873 0.79073638 0.00087990222
-0.23005429 0.79077959 0.0008758051
-0.21004912 0.79077983 0.00087580417
-0.18990685 0.79065067 0.00088799925
-0.16990058 0.79082245 0.00087175571
-0.14989407 0.79077935 0.00087583903
-0.12988935 0.79073632 0.00087990222
-0.10939623 0.79129457 0.0020055347
-0.089861043 0.79273754 0.0048639835
-0.069936395 0.79278398 0.0047332975
-0.050236009 0.79278445 0.0047332975
-0.030535558 0.79278481 0.0047332975
-0.01083519 0.79278457 0.0047332975
0.0098501714 0.79278404 0.0047332975
0.030535555 0.79278404 0.0047332975
0.050235998 0.79278421 0.0047332975
0.069762528 0.79103065 0.0013579917
0.08988519 0.79065073 0.00088799925
0.10988631 0.7906934 0.00088396628
0.12988934 0.7907362 0.00087990222
0.149894 0.79077941 0.00087583903
0.16990058 0.79082286 0.00087175571
0.18990687 0.79065073 0.00088799925
0.21004912 0.79077959 0.00087580417
0.23005426 0.79078001 0.0008758051
0.24991865 0.7907365 0.00087990222
0.26992407 0.79090953 0.00086353027
0.29006791 0.79065198 0.00088786334
-0.10201982 0.8007679 0.0081097214
-0.089931227 0.80082136 0.0075524449
-0.070166104 0.80082113 0.0075524449
-0.050401021 0.80082136 0.0075524449
-0.030635934 0.8008213 0.0075524449
-0.01087078 0.80082136 0.0075524449
0.0098825283 0.80082119 0.0075524449
0.030635938 0.80082107 0.0075524449
0.050401025 0.80082136 0.0075524449
-0.29005596 0.59480006 0.019410886
-0.26992026 0.59476101 0.019414576
-0.24996044 0.59479958 0.019410931
-0.22999865 0.5948388 0.019407224
-0.21003385 0.59476048 0.019414619
-0.1900723 0.59472209 0.019418269
-0.16993803 0.59487748 0.019403571
-0.1499742 0.59483957 0.019407149
-0.13018928 0.59468144 0.019422129
-0.11005139 0.5948 0.01941091
-0.089740746 0.5948776 0.019403571
-0.070132755 0.59471816 0.019418636
-0.0503335 0.59479976 0.019410912
-0.029858856 0.59480006 0.019410904
-0.01023731 0.5948 0.019410912
0.0093842009 0.59479976 0.019410908
0.029858852 0.59480011 0.019410908
0.0503335 0.59480023 0.019410901
0.070132747 0.59471816 0.019418631
0.089740738 0.59487748 0.019403571
0.11005139 0.5948 0.019410901
0.1301893 0.59468132 0.019422129
0.14997421 0.59483981 0.01940714
0.16993803 0.59487754 0.019403571
0.19007231 0.59472215 0.019418269
0.21003385 0.59476084 0.019414619
0.22999866 0.59483892 0.019407229
0.24996045 0.59479958 0.019410944
0.26992029 0.59476143 0.019414522
0.29005599 0.59480035 0.019410759
-0.28997192 0.60981858 0.017990498
-0.27000952 0.60990852 0.017981986
-0.24993514 0.60978144 0.017994007
-0.23007905 0.60998565 0.017974706
-0.21011542 0.60976952 0.017995127
-0.18993451 0.6098839 0.017984325
-0.16996814 0.60984433 0.017988078
-0.15011366 0.60992175 0.017980741
-0.13003901 0.60969388 0.018002272
-0.090114951 0.60969025 0.018002633
-0.069931515 0.60988313 0.017984364
-0.050074421 0.60988337 0.017984366
-0.030217325 0.60988349 0.017984355
-0.010360205 0.60988343 0.017984362
0.0094968555 0.60988337 0.017984368
0.030217322 0.60988349 0.017984346
0.050074432 0.60988331 0.017984362
0.069931515 0.60988361 0.017984347
0.090114951 0.60969007 0.018002629
0.13003898 0.60969383 0.018002277
0.15011366 0.60992187 0.017980726
0.16996813 0.60984409 0.017988088
0.18993452 0.60988379 0.017984333
0.21011542 0.6097697 0.017995108
0.23007903 0.60998547 0.017974604
0.24993514 0.60978192 0.017993841
0.27000949 0.60990888 0.017981796
0.28997192 0.60981876 0.017990308
-0.10996694 0.61007255 0.017966481
0.10996693 0.61007231 0.017966487
-0.089953408 0.6299181 0.016089611
0.089953385 0.62991786 0.016089605
-0.29002637 0.63010383 0.016072016
-0.27004641 0.6301741 0.016065383
-0.25006846 0.63008147 0.016074194
-0.22999367 0.63019794 0.016063174
-0.2100147 0.6300087 0.01608102
-0.190035 0.63017416 0.01606538
-0.1699626 0.63010442 0.016071979
-0.14998291 0.6301505 0.016067654
-0.13000277 0.63003409 0.016078621
-0.11002699 0.63029355 0.016054135
-0.070068263 0.63024861 0.016058385
-0.049901012 0.63006014 0.016076177
-0.029821832 0.63015145 0.01606757
-0.010525322 0.63015115 0.016067585
0.009648215 0.63015097 0.016067581
0.02982183 0.63015151 0.016067576
0.049901012 0.63006014 0.01607617
0.070068263 0.63024861 0.016058376
0.11002701 0.63029325 0.016054137
0.1300028 0.63003439 0.016078623
0.14998293 0.6301502 0.01606765
0.1699626 0.63010442 0.01607197
0.19003496 0.63017488 0.016065381
0.21001464 0.63000888 0.016081015
0.22999372 0.63019753 0.016063174
0.25006846 0.63008124 0.016074181
0.27004644 0.63017428 0.016065387
0.2900264 0.63010395 0.016072014
-0.29011357 0.65100604 0.014095142
-0.26995137 0.65104848 0.014091128
-0.2498952 0.65113235 0.014083214
-0.23006517 0.65101933 0.01409387
-0.21001168 0.65093833 0.014101534
-0.1899578 0.65107548 0.014088551
-0.1701248 0.65104729 0.014091223
-0.15018043 0.65095037 0.014100379
-0.13001835 0.65113115 0.014083294
-0.10996219 0.65110362 0.014085898
-0.090019107 0.65106094 0.014089913
-0.069862142 0.65085614 0.014109341
-0.049913324 0.65106153 0.014089858
-0.030304529 0.65106165 0.014089868
-0.010695738 0.65106159 0.014089867
0.0098044295 0.65106165 0.014089879
0.030304534 0.65106171 0.014089871
0.049913324 0.65106153 0.014089867
0.06986215 0.65085596 0.014109326
0.090019107 0.6510613 0.014089918
0.10996217 0.65110362 0.014085893
0.13001834 0.65113139 0.014083302
0.15018047 0.65095019 0.014100388
0.17012483 0.65104729 0.014091223
0.18995784 0.65107542 0.014088569
0.21001168 0.65093809 0.014101524
0.23006518 0.65101987 0.014093873
0.24989527 0.65113217 0.014083222
0.2699514 0.65104836 0.014091128
0.29011354 0.65100563 0.014095141
-0.16986325 0.66998386 0.012300442
-0.010730213 0.66998088 0.012300748
0.0098252539 0.66998959 0.012299937
0.16986321 0.66998398 0.012300442
-0.28986353 0.67008293 0.012291117
-0.26997069 0.67008305 0.012291117
-0.24994922 0.67004925 0.012294251
-0.22992691 0.67008305 0.012291117
-0.21003413 0.67008257 0.012291117
-0.1900131 0.67001671 0.01229736
-0.1498412 0.67008281 0.012291117
-0.12994827 0.67008263 0.012291117
-0.11005545 0.67008287 0.012291117
-0.090162456 0.67008251 0.012291117
-0.0702696 0.67008299 0.012291117
-0.050376642 0.67008311 0.012291117
-0.030483726 0.67008281 0.012291117
0.030483732 0.67008269 0.012291117
0.050376631 0.67008251 0.012291117
0.070269622 0.67008269 0.012291117
0.090162478 0.67008269 0.012291117
0.11005544 0.67008269 0.012291117
0.12994829 0.67008281 0.012291117
0.14984119 0.67008227 0.012291117
0.19001317 0.67001641 0.01229736
0.21003413 0.67008311 0.012291117
0.22992696 0.67008293 0.012291117
0.24994926 0.67004961 0.01229424
0.26997069 0.67008257 0.012291006
0.28986356 0.67008281 0.012291006
-0.29004756 0.68972111 0.010433787
-0.26997569 0.68967527 0.010438129
-0.24990585 0.6895988 0.010445337
-0.23006544 0.68958288 0.010446873
-0.21010965 0.68967509 0.010438129
-0.18992418 0.68967539 0.010438129
-0.16985285 0.68966037 0.010439541
-0.14989655 0.68962955 0.010442436
-0.12994161 0.68959904 0.010445337
-0.1099881 0.68956816 0.010448246
-0.089917473 0.68967527 0.010438129
-0.069731906 0.68967527 0.010438129
-0.049546372 0.68967527 0.010438129
-0.029360848 0.68967509 0.010438129
-0.010092763 0.68967545 0.010438129
0.009175241 0.68967527 0.010438129
0.029360849 0.68967527 0.010438129
0.049546365 0.68967527 0.010438129
0.069731899 0.68967521 0.010438129
0.089917488 0.68967545 0.010438129
0.10998808 0.6895681 0.010448246
0.1299416 0.68959886 0.010445337
0.14989653 0.68962985 0.010442436
0.16985284 0.68966031 0.010439541
0.18992415 0.68967497 0.010438129
0.21010967 0.68967533 0.010438129
0.23006545 0.68958288 0.010446873
0.24990579 0.68959898 0.010445337
0.26997575 0.68967515 0.010438129
0.29004759 0.68972105 0.010433787
0.061014 0.80023491 0.013682485
-0.28998953 0.48980859 0.02934045
-0.2699461 0.48983547 0.029337911
-0.24990353 0.4897674 0.029344372
-0.2298598 0.48984939 0.02933659
-0.20988585 0.48976701 0.029344412
-0.18998656 0.48984924 0.029336633
-0.17001331 0.48989061 0.029332668
-0.14996976 0.48978138 0.029342983
-0.12999882 0.48976701 0.029344365
-0.1100263 0.48989078 0.029332647
-0.089981191 0.48983607 0.029337775
-0.07008373 0.48965558 0.029354906
-0.050038837 0.48984966 0.029336562
-0.029710567 0.48984945 0.02933654
-0.010164136 0.48984966 0.02933654
0.0093822712 0.48984918 0.029337103
0.029710539 0.48984879 0.029337103
0.050038807 0.48984906 0.02933709
0.070083663 0.48965493 0.029355478
0.089981072 0.48983613 0.029338377
0.11002621 0.48989046 0.02933321
0.12999874 0.48976648 0.029344954
0.14996967 0.48978093 0.02934356
0.17001319 0.4898904 0.029333239
0.18998641 0.48984888 0.029337147
0.20988567 0.48976669 0.0293449
0.22985967 0.48984939 0.029337088
0.24990338 0.48976713 0.029344857
0.26994595 0.48983514 0.029338406
0.28998941 0.48980886 0.029340977
-0.28998953 0.51047218 0.027386302
-0.27001417 0.51036888 0.027396103
-0.24995977 0.51037025 0.027395967
-0.22998534 0.51040834 0.027392287
-0.21001074 0.51038557 0.027394431
-0.18987721 0.51031381 0.027401222
-0.16990137 0.51046455 0.027386937
-0.15000983 0.51035303 0.027397508
-0.12995173 0.51033849 0.027398856
-0.1099002 0.51044798 0.027388565
-0.090004295 0.51036936 0.027395913
-0.06987413 0.51028389 0.027404066
-0.049971271 0.51054001 0.027379829
-0.030087577 0.51028419 0.027404053
-0.010345636 0.51040882 0.027392225
0.0095498152 0.51040846 0.027392324
0.030087555 0.51028383 0.027404148
0.049971242 0.51053977 0.027379898
0.069874108 0.51028401 0.027404122
0.090004295 0.51036972 0.027396005
0.10990017 0.5104481 0.027388614
0.12995172 0.51033849 0.027398942
0.15000972 0.51035315 0.027397595
0.16990127 0.51046443 0.027387012
0.18987723 0.51031369 0.027401287
0.21001068 0.51038563 0.027394516
0.22998524 0.51040864 0.027392333
0.24995971 0.5103699 0.027395977
0.27001417 0.51036876 0.027396107
0.28998953 0.51047212 0.027386302
-0.29002169 0.52965325 0.025572244
-0.26989266 0.52961636 0.025575723
-0.24993937 0.52965289 0.025572287
-0.22998579 0.52954245 0.025582682
-0.2099458 0.52976447 0.025561692
-0.18999359 0.52959698 0.025577504
-0.17004295 0.52959704 0.025577523
-0.14999662 0.5296163 0.025575712
-0.12995961 0.52967179 0.025570482
-0.11000512 0.52965218 0.025572311
-0.090056039 0.52948654 0.025588036
-0.070096873 0.52982032 0.025556426
-0.049887035 0.52949023 0.025587646
-0.029928638 0.52965307 0.025572248
-0.010515455 0.52965301 0.025572238
0.0097065717 0.52965283 0.025572259
0.029928638 0.52965325 0.025572268
0.049887042 0.52949023 0.025587689
0.070096903 0.5298205 0.025556358
0.090056062 0.52948624 0.025587911
0.11000512 0.52965248 0.025572231
0.12995961 0.52967209 0.025570389
0.14999667 0.52961677 0.025575627
0.17004296 0.52959758 0.025577437
0.18999361 0.5295974 0.025577439
0.20994581 0.52976477 0.025561614
0.2299858 0.52954262 0.025582612
0.24993929 0.52965295 0.025572186
0.26989272 0.52961659 0.025575662
0.29002172 0.52965349 0.025572162
-0.28988507 0.54950762 0.023694349
-0.26998377 0.54956037 0.023689358
-0.25008252 0.54949003 0.023695981
-0.2300179 0.54952598 0.023692595
-0.20995098 0.5495252 0.023692686
-0.18996695 0.54955173 0.023690172
-0.16998358 0.54949021 0.023695976
-0.15000185 0.54949951 0.023695085
-0.13001671 0.54956037 0.023689358
-0.11003216 0.54951614 0.023693519
-0.089967735 0.549447 0.023700055
-0.069986328 0.54947305 0.023697618
-0.050165877 0.54955184 0.023690153
-0.030428475 0.54955184 0.023690183
-0.010691089 0.5495519 0.023690172
0.009868701 0.54955167 0.023690159
0.030428471 0.54955178 0.023690162
0.050165884 0.54955167 0.023690157
0.069986336 0.54947293 0.023697628
0.089967728 0.54944706 0.023700042
0.11003216 0.54951644 0.023693496
0.13001671 0.54956013 0.023689358
0.15000184 0.54949981 0.023695106
0.16998355 0.54949039 0.023695981
0.18996701 0.54955167 0.023690172
0.20995103 0.54952526 0.023692671
0.23001784 0.5495261 0.023692608
0.25008264 0.54949051 0.023695989
0.26998374 0.54956037 0.023689369
0.28988504 0.54950774 0.023694344
-0.010232472 0.56996137 0.021759864
0.0093952725 0.56997383 0.021758707
-0.2900227 0.5701136 0.021745475
-0.26995021 0.5701136 0.021745494
-0.24987783 0.57011384 0.021745488
-0.22989793 0.57007265 0.021749379
-0.20991938 0.57011366 0.021745488
-0.18993966 0.57005173 0.021751333
-0.16996145 0.57011372 0.021745492
-0.14998306 0.57003081 0.02175332
-0.13000381 0.57011342 0.021745482
-0.10993138 0.57011348 0.021745488
-0.089858994 0.57011348 0.021745494
-0.069786519 0.57011384 0.021745479
-0.049714103 0.5701136 0.02174549
-0.029641697 0.57011366 0.021745495
0.029641692 0.57011372 0.021745488
0.049714111 0.57011324 0.021745492
0.069786526 0.57011372 0.021745507
0.089858964 0.5701136 0.021745492
0.10993138 0.5701136 0.021745477
0.13000381 0.5701136 0.02174549
0.14998309 0.57003117 0.02175332
0.16996147 0.5701136 0.021745499
0.18993959 0.57005155 0.021751331
0.20991944 0.57011372 0.021745492
0.22989787 0.57007247 0.021749374
0.24987775 0.5701136 0.021745492
0.26995018 0.57011384 0.02174549
0.2900227 0.57011348 0.021745505
-0.2900199 0.58449936 0.020385263
-0.27014044 0.58464313 0.020371662
-0.25004134 0.58457166 0.020378456
-0.2299445 0.58459538 0.020376176
-0.21006007 0.58454734 0.02038072
-0.19017793 0.5844993 0.020385263
-0.17007957 0.58457166 0.020378456
-0.14977156 0.58457142 0.020378456
-0.1296685 0.58464342 0.020371662
-0.11000054 0.58457148 0.020378441
-0.090336062 0.58449918 0.020385263
-0.070231847 0.58457154 0.020378456
-0.049923826 0.58457154 0.020378456
-0.029615834 0.58457136 0.020378456
-0.010154 0.58457166 0.020378456
0.0093078325 0.5845713 0.020378456
0.029615836 0.5845713 0.020378456
0.049923837 0.58457142 0.020378456
0.070231855 0.58457172 0.020378456
0.090336047 0.58449966 0.020385263
0.11000055 0.58457178 0.020378441
0.12966852 0.58464336 0.020371662
0.14977156 0.58457148 0.020378456
0.17007953 0.58457136 0.020378456
0.19017793 0.58449942 0.020385263
0.21006006 0.58454746 0.02038072
0.22994447 0.58459532 0.020376176
0.25004134 0.5845716 0.020378456
0.27014044 0.58464324 0.020371571
0.29001993 0.58449984 0.020385081
-0.2902922 0.37857154 0.039861023
-0.27051571 0.37857154 0.039861023
-0.25003269 0.37857154 0.039861023
-0.22954985 0.37857154 0.039861023
-0.2097732 0.37857154 0.039861023
-0.18999664 0.37857154 0.039861023
-0.17022 0.37857154 0.039861023
-0.15044343 0.37857154 0.039861023
-0.12996054 0.37857154 0.039861023
-0.10947763 0.37857154 0.039861023
-0.089700989 0.37857154 0.039861023
-0.069924362 0.37857154 0.039861023
-0.050147858 0.37857154 0.039861023
-0.030371215 0.37857154 0.039861023
-0.010594644 0.37857154 0.039861023
0.0098882662 0.37857088 0.039863169
0.030371072 0.37857085 0.039863169
0.050147712 0.37857065 0.039863374
0.069924138 0.37857011 0.039863884
0.089700706 0.37857011 0.039863884
0.10947721 0.37857011 0.039863884
0.12996008 0.37857011 0.039863884
0.15044293 0.37857011 0.039863884
0.17021942 0.37857011 0.039863884
0.189996 0.37857041 0.039863579
0.20977259 0.37857085 0.039863169
0.22954907 0.37857085 0.039863169
0.25003192 0.37857088 0.039863169
0.27051479 0.37857085 0.039863169
0.29029131 0.37857085 0.039863169
-0.29004246 0.38966307 0.038811699
-0.27000022 0.38965341 0.038812615
-0.25001234 0.38971508 0.038806789
-0.23002402 0.38971516 0.038806751
-0.21003608 0.38963541 0.038814221
-0.19004859 0.38971484 0.038806699
-0.17006104 0.38961804 0.038815863
-0.15001878 0.38966268 0.03881165
-0.12997629 0.38971516 0.038806725
-0.10998782 0.38971493 0.038806662
-0.089999378 0.38971496 0.038806662
-0.070010945 0.38971505 0.038806655
-0.050022487 0.38971496 0.038806699
-0.030034034 0.38971514 0.03880671
-0.010388066 0.38952351 0.0388248
0.0096735274 0.38953552 0.038825702
0.030033976 0.38971362 0.038808826
0.05002233 0.38971379 0.03880886
0.070010766 0.3897137 0.038808811
0.089999028 0.38971353 0.03880886
0.10998753 0.3897135 0.038808823
0.12997584 0.38971362 0.03880886
0.15001838 0.3896611 0.038813777
0.1700606 0.38961676 0.03881802
0.19004801 0.38971353 0.03880886
0.21003543 0.38963464 0.038816374
0.23002331 0.38971347 0.038808838
0.25001165 0.38971382 0.038808819
0.2699993 0.38965166 0.038814671
0.29004157 0.38966122 0.038813774
-0.28993756 0.41014627 0.03687422
-0.27004761 0.41009673 0.036879048
-0.25003493 0.41017705 0.036871351
-0.23002239 0.41006622 0.036881868
-0.2100109 0.41011602 0.036877088
-0.18993662 0.41015169 0.036873724
-0.16992334 0.41009089 0.036879461
-0.14997278 0.41014662 0.03687425
-0.13001949 0.41012141 0.036876604
-0.11006971 0.41008565 0.036879968
-0.090056397 0.41019782 0.036869429
-0.070104368 0.41007102 0.036881387
-0.050094996 0.41005078 0.036883302
-0.029837646 0.41015157 0.036873732
-0.010188458 0.41015142 0.036873765
0.0094606979 0.41015089 0.036875855
0.029837575 0.41015059 0.036875859
0.050034836 0.41001391 0.036888789
0.070042886 0.41010576 0.036880113
0.090056084 0.41019651 0.036871523
0.11000892 0.41004837 0.036885504
0.12995847 0.41015565 0.036875356
0.14997247 0.41014501 0.036876384
0.16992299 0.41008976 0.036881614
0.18993627 0.41015083 0.036875844
0.21001035 0.41011509 0.036879212
0.23002176 0.41006461 0.036883991
0.25003421 0.4101761 0.036873449
0.27004692 0.41009489 0.036881112
0.28993681 0.41014549 0.036876369
0.30000001 0.41598597 0.036324024
-0.29006022 0.42960992 0.035033856
-0.26998529 0.42958668 0.035036035
-0.24991231 0.42970255 0.035025053
-0.22990629 0.42963284 0.035031691
-0.20996507 0.42965615 0.035029452
-0.19002876 0.42965639 0.035029449
-0.17002119 0.42956349 0.035038233
-0.1500133 0.42970267 0.035025056
-0.13001016 0.42963281 0.035031658
-0.10999957 0.4296096 0.035033833
-0.089996092 0.42972586 0.03502287
-0.069991402 0.4294931 0.035044868
-0.049976494 0.42984164 0.03501188
-0.029983992 0.42949271 0.035044897
-0.010373986 0.42966792 0.03502835
0.0096329609 0.42966631 0.035029687
0.029983923 0.42949134 0.035046224
0.049976375 0.42984065 0.035013258
0.069991276 0.42949161 0.035046302
0.089995943 0.42972487 0.035024256
0.10999934 0.42960823 0.035035178
0.13000983 0.42963183 0.035032958
0.15001301 0.42970183 0.035026371
0.17002083 0.42956221 0.035039514
0.19002828 0.42965519 0.035030711
0.20996468 0.42965502 0.035030685
0.22990601 0.42963156 0.035032913
0.24991176 0.42970148 0.03502629
0.26998481 0.42958555 0.035037298
0.29005986 0.42960858 0.035035074
-0.2899389 0.44985044 0.033119652
-0.26994014 0.44989604 0.03311532
-0.24993935 0.44988424 0.033116467
-0.23000151 0.44990137 0.03311481
-0.21000239 0.44986764 0.033118021
-0.19000115 0.4498674 0.03311801
-0.17000115 0.44981125 0.033123303
-0.15000132 0.44995794 0.033109482
-0.13000017 0.4499017 0.033114824
-0.10993963 0.44987398 0.033117428
-0.089937449 0.4499408 0.033111077
-0.069937721 0.44982824 0.033121735
-0.049940921 0.44980529 0.033123866
-0.030189829 0.44991851 0.0331132
-0.010566458 0.44991842 0.033113182
0.0098117134 0.44991729 0.033114206
0.030189786 0.44991767 0.033114225
0.049940802 0.44980466 0.033124868
0.069937624 0.44982737 0.033122711
0.089937292 0.44993943 0.033112071
0.10993952 0.44987306 0.033118423
0.12999991 0.44990075 0.033115782
0.15000102 0.44995713 0.033110503
0.1700009 0.44981062 0.033124302
0.19000077 0.44986668 0.033119008
0.21000212 0.44986668 0.033119
0.23000123 0.44990027 0.033115841
0.24993889 0.44988322 0.033117417
0.26993972 0.44989538 0.033116274
0.28993851 0.44984919 0.033120651
-0.29005387 0.46995211 0.031218335
-0.26999983 0.46998787 0.031214964
-0.25010028 0.46992299 0.031221116
-0.23012169 0.46993867 0.031219658
-0.21006885 0.46998802 0.031214971
-0.19001423 0.46992448 0.031220986
-0.16996099 0.46998802 0.031214952
-0.14998329 0.46998811 0.031214949
-0.1300056 0.4699882 0.03121496
-0.11002791 0.4699879 0.03121496
-0.09005022 0.46998823 0.031214975
-0.070072554 0.46998802 0.031214956
-0.05009488 0.4699882 0.031214979
-0.030117193 0.4699879 0.031214956
-0.010461403 0.46981117 0.031231726
0.009692153 0.46982312 0.031231372
0.030117162 0.46998766 0.031215819
0.050094794 0.46998736 0.031215822
0.070072502 0.46998748 0.031215826
0.090050109 0.46998695 0.031215826
0.11002778 0.4699873 0.031215819
0.13000546 0.46998781 0.031215774
0.14998306 0.46998733 0.031215748
0.16996077 0.46998712 0.031215752
0.19001396 0.46992379 0.031221768
0.21006867 0.46998721 0.031215763
0.23012149 0.46993786 0.031220444
0.25009996 0.46992218 0.031221915
0.26999968 0.46998739 0.031215755
0.29005358 0.46995184 0.031219101
-0.10214925 0.79865313 0.030222317
-0.090140484 0.79867142 0.030030031
-0.069730766 0.79863536 0.030408587
-0.049615324 0.79865295 0.030222317
-0.030158268 0.79865301 0.03022231
-0.010701385 0.79865319 0.030222308
0.0097285332 0.79865289 0.030222304
0.030158265 0.79865289 0.030222304
0.04961532 0.79865319 0.030222317
0.060316667 0.79865319 0.030222317
-0.28996065 0.2929053 0.047962502
-0.26999894 0.29280236 0.047972191
-0.25010183 0.29283196 0.047969371
-0.23007573 0.29285353 0.047967318
-0.2099843 0.29285356 0.047967345
-0.19002301 0.29278496 0.047973793
-0.17006114 0.29288828 0.047964044
-0.15003665 0.29282373 0.047970116
-0.13007244 0.2928147 0.047970973
-0.11004801 0.29288781 0.04796407
-0.08995612 0.29281905 0.047970578
-0.070126526 0.29278442 0.047973908
-0.050030425 0.29292038 0.047960952
-0.029946594 0.29278433 0.04797386
-0.010369805 0.29285386 0.047967322
0.0097216265 0.29285213 0.047971252
0.029946471 0.2927824 0.047977824
0.050030116 0.29291847 0.047964938
0.070126191 0.2927826 0.047977809
0.089955673 0.29281732 0.047974542
0.1100474 0.29288602 0.047968023
0.13007183 0.29281271 0.047974948
0.15003581 0.29282218 0.047974102
0.17006022 0.29288664 0.047967982
0.19002202 0.29278323 0.047977749
0.20998323 0.29285198 0.047971286
0.23007458 0.29285204 0.047971249
0.25010073 0.29283008 0.04797332
0.26999745 0.29280046 0.047976114
0.28995916 0.29290387 0.047966335
-0.29005596 0.30965626 0.046378165
-0.27005076 0.3096382 0.046379812
-0.25000194 0.30965036 0.046378665
-0.22999609 0.30966222 0.046377555
-0.21003434 0.30966842 0.046376951
-0.19002976 0.30963844 0.046379808
-0.17002374 0.3096621 0.046377558
-0.1500181 0.30966818 0.046376973
-0.13001364 0.30961475 0.046382066
-0.11005211 0.3096863 0.046375241
-0.090089269 0.30963814 0.046379782
-0.070041515 0.30958471 0.046384893
-0.050125297 0.30969229 0.046374701
-0.030338991 0.30969241 0.046374686
-0.010552685 0.30969262 0.046374671
0.0098931156 0.30969107 0.046378508
0.030338798 0.3096911 0.04637859
0.050125036 0.30969113 0.046378594
0.070041165 0.3095831 0.046388771
0.090088844 0.30963704 0.046383768
0.11005154 0.30968496 0.046379246
0.13001296 0.30961317 0.046386003
0.15001746 0.30966678 0.046380926
0.17002282 0.30966082 0.046381496
0.19002888 0.30963683 0.046383727
0.21003337 0.30966702 0.046380963
0.22999488 0.30966067 0.046381526
0.25000075 0.30964935 0.046382505
0.27004939 0.30963689 0.046383657
0.29005456 0.30965456 0.046382073
-0.28989449 0.32994345 0.044459764
-0.2699368 0.32991183 0.044462696
-0.24997862 0.32992288 0.044461668
-0.22997212 0.32990858 0.044462986
-0.20996697 0.32992917 0.044461008
-0.18996085 0.329916 0.044462211
-0.16995446 0.32993644 0.044460334
-0.14994854 0.32992265 0.044461668
-0.12994352 0.3299087 0.044462897
-0.10988871 0.32994664 0.044459306
-0.089881636 0.32988441 0.044465199
-0.069926023 0.3298741 0.044466231
-0.049824264 0.32995653 0.044458397
-0.029625263 0.32995653 0.044458371
-0.010099531 0.32995704 0.044458374
0.0094261961 0.32995486 0.044461619
0.029625118 0.32995489 0.044461615
0.049824033 0.32995489 0.044461641
0.069925733 0.32987213 0.044469453
0.089881204 0.32988304 0.044468477
0.10988817 0.32994512 0.044462617
0.12994292 0.329907 0.044466194
0.14994793 0.32992119 0.04446489
0.16995372 0.32993454 0.044463657
0.18995985 0.32991382 0.044465523
0.20996611 0.3299275 0.044464227
0.22997117 0.32990715 0.044466212
0.24997745 0.32992083 0.04446489
0.26993573 0.32990983 0.044465885
0.28989303 0.32994169 0.044462923
-0.29006848 0.34951147 0.042608984
-0.27005062 0.34962925 0.042597827
-0.25008738 0.34953478 0.042606778
-0.23006849 0.34955892 0.042604495
-0.20999892 0.34954312 0.042605959
-0.19003363 0.34962121 0.042598609
-0.17007019 0.34955844 0.042604528
-0.15005171 0.34950387 0.042609677
-0.13003354 0.34963712 0.042597104
-0.1100711 0.34955052 0.042605277
-0.090051569 0.34955955 0.04260445
-0.069982141 0.3495658 0.042603798
-0.050068874 0.34963039 0.042597763
-0.030057177 0.34948149 0.042611793
-0.010299516 0.3495979 0.042600796
0.0096128406 0.34959695 0.042603768
0.030005053 0.34945667 0.042617004
0.050015114 0.34965283 0.042598449
0.069981888 0.34956497 0.042606797
0.090051197 0.34955841 0.042607404
0.11007066 0.34954947 0.042608246
0.13003311 0.34963629 0.042600047
0.1500511 0.34950304 0.04261262
0.17006958 0.34955782 0.042607434
0.19003274 0.34961993 0.042601559
0.209998 0.34954211 0.042608928
0.23006773 0.3495582 0.042607438
0.25008649 0.34953374 0.042609729
0.27004948 0.3496283 0.042600796
0.29006737 0.34951043 0.042611979
-0.28997874 0.36845946 0.040817078
-0.27004409 0.36849523 0.040813703
-0.24999279 0.36840662 0.040822078
-0.22994243 0.36853164 0.040810168
-0.21000762 0.36842316 0.040820379
-0.19001652 0.3684645 0.040816538
-0.16996504 0.36849084 0.040814001
-0.14997295 0.36841455 0.040821191
-0.1300382 0.36847728 0.040815294
-0.11004449 0.36844665 0.040818211
-0.089996457 0.36853614 0.040809736
-0.069943585 0.36849073 0.040814068
-0.049897533 0.36834791 0.040827516
-0.030076964 0.36849093 0.040813964
-0.010491912 0.36849132 0.04081399
0.0097924275 0.36849019 0.040816642
0.030076846 0.36848995 0.04081668
0.049897376 0.36834708 0.040830281
0.069943294 0.36848959 0.040816776
0.089996144 0.36853501 0.04081247
0.11004401 0.36844552 0.04082096
0.13003783 0.36847591 0.040818106
0.14997233 0.36841381 0.040824022
0.16996446 0.36849004 0.040816758
0.19001584 0.36846331 0.040819254
0.21000694 0.36842254 0.040823109
0.22994161 0.36853063 0.040812854
0.24999186 0.36840549 0.040824663
0.27004331 0.36849424 0.040816229
0.28997782 0.36845863 0.040819589
-0.10227141 0.79692596 0.048280813
-0.089823067 0.7968052 0.049539216
-0.070071362 0.79682773 0.049304128
-0.049913891 0.79682797 0.049304128
-0.029756377 0.79682791 0.049304124
-0.010558701 0.79682809 0.049304128
0.0095988186 0.79682761 0.049304146
0.029756373 0.79682785 0.04930412
0.049913883 0.79682785 0.049304124
0.061055999 0.796 0.057966471
-0.10219719 0.79491526 0.069302432
-0.090172939 0.79489708 0.06949424
-0.070025682 0.79491562 0.069299079
-0.050153479 0.79491562 0.069299094
-0.030281395 0.79491562 0.069299072
-0.010409215 0.79491585 0.069299072
0.0094629228 0.79491609 0.069299094
0.030281389 0.79491544 0.069299094
0.050153494 0.7949155 0.069299079
0.060562856 0.79491562 0.069299079
-0.089948252 0.79293865 0.089969896
-0.10219237 0.79286426 0.090746276
-0.070146799 0.79291379 0.090226449
-0.05022461 0.79291612 0.09020748
-0.029829122 0.79292661 0.0900971
-0.010253699 0.79292637 0.090097122
0.0093215434 0.79292655 0.090097137
0.029829115 0.79292643 0.090097107
0.050224617 0.79291576 0.090207487
0.060585499 0.79293013 0.090058863
-0.10222632 0.79091549 0.11112332
-0.090006299 0.79099524 0.11029609
-0.069800802 0.79099518 0.11029605
-0.049595289 0.79099524 0.11029606
-0.029389789 0.79099548 0.11029609
-0.010102742 0.79099542 0.11029609
0.0091843139 0.79099524 0.11029612
0.029389793 0.7909953 0.11029604
0.0495953 0.79099524 0.11029604
0.060616713 0.79099464 0.11029603
-0.10215843 0.78915286 0.12955309
-0.090055972 0.78912008 0.12989603
-0.070143528 0.78912026 0.12989606
-0.050231084 0.78911996 0.12989603
-0.030318595 0.78912014 0.12989607
0.030318582 0.78911978 0.12989603
0.050231073 0.7891199 0.12989603
0.060434002 0.78932804 0.12772419
-0.01064819 0.78910261 0.1300763
0.009741961 0.78910416 0.13006091
-0.10215463 0.78727323 0.14920476
-0.090020031 0.78717881 0.15019272
-0.069862865 0.7871592 0.15039778
-0.049913812 0.78717923 0.15019217
-0.030304849 0.78717899 0.15019222
-0.010695841 0.78717899 0.15019226
0.0098045189 0.78717899 0.15019216
0.030304851 0.78717881 0.15019225
0.049913835 0.78717899 0.15019226
0.060609624 0.78717875 0.15019217
-0.10226729 0.78538859 0.16890958
-0.070121177 0.78530473 0.16978331
-0.049936723 0.78528756 0.16996877
-0.029849924 0.7852959 0.16987911
-0.010535238 0.78529602 0.16987906
0.0096573019 0.7852959 0.16987908
0.029849922 0.7852962 0.16987914
0.049936723 0.78528762 0.16996877
-0.10206749 0.928689 0.16891468
-0.090037577 0.92967141 0.16882168
-0.070081219 0.92989379 0.16880067
-0.049775515 0.92944455 0.16884317
-0.03001252 0.92967141 0.16882168
-0.010649618 0.92967165 0.16882169
0.0096814726 0.92967135 0.16882172
0.03001252 0.92967123 0.16882169
0.049775518 0.92944485 0.16884317
0.060190335 0.93360204 0.16845004
-0.10228042 0.9499504 0.16690372
-0.089732848 0.9493835 0.16695744
-0.069699861 0.94961631 0.16693537
-0.050066099 0.94961667 0.16693529
-0.030432325 0.94961607 0.16693535
-0.010798579 0.94961572 0.16693535
0.0098168915 0.94961584 0.16693538
0.030432319 0.94961619 0.16693529
0.050066099 0.94961607 0.16693527
0.060779251 0.94758815 0.16712716
-0.10211225 0.96389288 0.16558501
-0.090215549 0.96389276 0.16558504
-0.070388198 0.96389276 0.16558503
-0.050560445 0.96389264 0.16558501
-0.030732755 0.96389264 0.16558501
-0.01090535 0.96389282 0.16558504
0.0099139549 0.9638927 0.16558504
0.030732747 0.96389264 0.16558501
0.050560445 0.96389264 0.16558503
-0.089991562 0.78527594 0.17008995
0.060771663 0.78510493 0.17187619
-0.10243375 0.81564415 0.1796079
-0.089963622 0.81564409 0.17960794
-0.069476813 0.81564432 0.17960793
-0.049880911 0.8156442 0.17960793
-0.03028482 0.81564409 0.17960793
-0.010688728 0.8156442 0.17960796
0.0097980006 0.81564444 0.17960791
0.030284822 0.81564432 0.17960793
0.049880911 0.81564432 0.17960793
0.060569502 0.81564415 0.1796079
-0.10214619 0.82810408 0.17842947
-0.089988105 0.82912362 0.17833304
-0.070190713 0.82912356 0.17833306
-0.050393306 0.82912368 0.17833306
-0.030595921 0.8291235 0.17833304
-0.010798518 0.82912374 0.1783331
0.0098986393 0.82912356 0.17833309
0.030595925 0.8291235 0.17833301
0.050393302 0.82912356 0.17833301
0.060956333 0.82402593 0.17881526
-0.10221067 0.84948081 0.17640696
-0.089869037 0.84983534 0.17637345
-0.069762364 0.84983534 0.17637344
-0.049655605 0.84983534 0.17637336
-0.029548792 0.8498354 0.17637339
-0.010215952 0.84969187 0.17638694
0.0093010897 0.8497045 0.17638583
0.029548794 0.84983528 0.17637341
0.049655605 0.84983474 0.17637353
0.060398597 0.85158193 0.17620829
-0.090125613 0.86932093 0.17453058
-0.070289098 0.86925459 0.17453684
-0.050069802 0.86938828 0.17452419
-0.029670985 0.86938852 0.17452426
-0.010199441 0.86938828 0.17452423
0.0092722187 0.86938858 0.17452413
0.029670984 0.86938864 0.17452413
0.050069798 0.86938828 0.1745242
0.060954001 0.86398089 0.17503542
-0.10234023 0.87022042 0.17444547
-0.090015411 0.88930404 0.17264044
-0.069930546 0.8897686 0.17259644
-0.050191011 0.88929725 0.1726411
-0.030108724 0.88953698 0.17261834
-0.01034985 0.88953686 0.17261843
0.0094089527 0.88953686 0.17261839
0.030108728 0.8895368 0.17261843
0.050191008 0.8892976 0.17264105
-0.10223099 0.89060009 0.17251779
0.060378753 0.89324558 0.17226747
-0.10239091 0.90957505 0.1707231
0.060951997 0.90643805 0.17101987
-0.090140268 0.91048527 0.17063697
-0.070104495 0.91004777 0.1706783
-0.05002521 0.91048539 0.17063701
-0.030001925 0.91004825 0.17067832
-0.010504701 0.91026855 0.17065746
0.0095497277 0.91026866 0.17065749
0.030001922 0.91004825 0.17067829
0.050025206 0.91048509 0.17063695
-0.089828365 0.78989512 0.18172964
0.061010748 0.78702021 0.18185106
-0.10220893 0.79016799 0.18175237
-0.069880851 0.79000199 0.1817238
-0.04979014 0.79000187 0.18172389
-0.029699381 0.79000169 0.18172389
