# .PCD v0.7 - Point Cloud Data file format
VERSION 0.7
FIELDS x y z
SIZE 4 4 4
TYPE F F F
COUNT 1 1 1
WIDTH 392
HEIGHT 1
VIEWPOINT 0 0 0 1 0 0 0
POINTS 392
DATA ascii
-0.10274 0.91794485 0.16993111
-0.095058329 0.91794485 0.16993111
-0.084496394 0.91794479 0.16993111
-0.074894398 0.91794479 0.16993111
-0.065292597 0.91794479 0.16993111
-0.055690598 0.91794479 0.16993111
-0.045128834 0.91794485 0.16993111
-0.0345666 0.91794479 0.16993111
-0.024964798 0.91794479 0.16993111
-0.015363 0.91794479 0.16993111
-0.0057609999 0.91794479 0.16993111
0.0048008333 0.91794485 0.16993111
0.015363 0.91794479 0.16993111
0.0249648 0.91794479 0.16993111
0.0345666 0.91794479 0.16993111
0.045128837 0.91794485 0.16993111
0.055690598 0.91794479 0.16993111
-0.10206313 0.92524445 0.16924044
-0.094616406 0.9257341 0.16919419
-0.084961601 0.92573416 0.16919419
-0.075306997 0.92573416 0.16919419
-0.065300442 0.9259789 0.16917105
-0.054738294 0.92550379 0.16921598
-0.044411797 0.9257341 0.16919419
-0.034757067 0.92573398 0.16919419
-0.025102267 0.9257341 0.16919419
-0.015447533 0.92573416 0.16919419
-0.0057929331 0.92573416 0.16919419
0.0048274444 0.9257341 0.16919419
0.015447534 0.92573416 0.16919419
0.025102265 0.9257341 0.16919419
0.034757067 0.92573398 0.16919419
0.044411801 0.9257341 0.16919419
0.054738294 0.92550379 0.16921598
0.060024001 0.92965019 0.1688239
-0.10207625 0.93557799 0.16826311
-0.0952712 0.93557805 0.16826311
-0.085549697 0.93557799 0.16826311
-0.075306639 0.93575823 0.16824609
-0.064683639 0.93539774 0.16828014
-0.0544407 0.93557799 0.16826312
-0.044719197 0.93557805 0.16826311
-0.034997601 0.93557805 0.16826311
-0.025276 0.93557799 0.16826311
-0.0155545 0.93557805 0.16826311
-0.0058329003 0.93557805 0.16826311
0.0048607499 0.93557793 0.16826312
0.015554501 0.93557787 0.16826312
0.025276 0.93557805 0.16826311
0.034997601 0.93557805 0.16826311
0.044719197 0.93557799 0.16826312
0.054440696 0.93557799 0.16826312
0.060273498 0.93557793 0.16826311
-0.10240886 0.94614279 0.16726378
-0.094955444 0.94556719 0.16731825
-0.084540255 0.94531655 0.16734195
-0.074399337 0.94556779 0.1673182
-0.064610064 0.94556779 0.16731817
-0.054820534 0.94556767 0.16731818
-0.045031268 0.94556767 0.1673182
-0.035241935 0.94556767 0.1673182
-0.025452336 0.94556767 0.1673182
-0.015663002 0.94556779 0.1673182
-0.0058735996 0.94556773 0.1673182
0.0048946668 0.94556779 0.16731817
0.015663 0.94556767 0.16731817
0.025452334 0.94556773 0.16731821
0.035241935 0.94556767 0.1673182
0.045031268 0.94556773 0.1673182
0.054820534 0.94556773 0.16731821
0.060694337 0.94556767 0.16731821
-0.1021006 0.9552809 0.16639958
-0.094637901 0.95568877 0.16636097
-0.084779806 0.95568877 0.166361
-0.07492169 0.95568877 0.166361
-0.065063499 0.95568877 0.16636094
-0.055205502 0.95568877 0.166361
-0.045347299 0.95568866 0.16636094
-0.035489202 0.95568866 0.16636094
-0.025631001 0.95568877 0.16636094
-0.015773099 0.95568877 0.166361
-0.0059149 0.95568866 0.16636094
0.0049290834 0.95568877 0.16636099
0.015773099 0.95568866 0.16636094
0.025630999 0.95568877 0.166361
0.035489198 0.95568877 0.166361
0.045347303 0.95568877 0.166361
0.055205502 0.95568877 0.166361
0.061034001 0.9536494 0.16655403
-0.10211225 0.96389294 0.16558501
-0.095172495 0.96389294 0.16558501
-0.085258596 0.96389282 0.16558501
-0.075345099 0.96389282 0.16558501
-0.065431297 0.96389282 0.16558501
-0.055517398 0.96389282 0.16558501
-0.045603503 0.96389282 0.16558501
-0.0356896 0.96389282 0.16558501
-0.025775904 0.96389282 0.16558501
-0.015862301 0.96389294 0.16558501
-0.0059483997 0.96389294 0.16558501
0.0049570003 0.96389276 0.16558501
0.015862299 0.96389294 0.16558501
0.0257759 0.96389294 0.16558501
0.0356896 0.96389294 0.16558501
0.045603503 0.96389282 0.16558501
0.055517398 0.96389294 0.16558501
-0.10233349 0.7848323 0.17472678
-0.095336288 0.7848323 0.17472678
-0.084840499 0.7848323 0.17472677
-0.07475432 0.7848534 0.17450809
-0.065188915 0.78481156 0.17494549
-0.055102587 0.78483224 0.17472678
-0.044606965 0.78483224 0.17472678
-0.034985751 0.78483236 0.1747268
-0.02536471 0.7848323 0.17472678
-0.014868918 0.7848323 0.17472677
-0.0052479506 0.78483236 0.17472677
0.004373291 0.7848323 0.17472678
0.014868915 0.7848323 0.17472674
0.02536471 0.78483248 0.17472677
0.034985747 0.78483236 0.17472677
0.044606965 0.7848323 0.17472677
0.055102587 0.7848323 0.17472678
0.061110999 0.78460217 0.17713234
-0.10243376 0.81564415 0.1796079
-0.095307998 0.8156442 0.17960791
-0.084619254 0.81564426 0.17960791
-0.074821196 0.81564426 0.1796079
-0.065023161 0.8156442 0.17960791
-0.055225302 0.81564415 0.17960791
-0.045427252 0.8156442 0.17960791
-0.034738418 0.8156442 0.17960793
-0.0249405 0.81564426 0.1796079
-0.015142334 0.81564426 0.17960791
-0.0053444002 0.81564426 0.1796079
0.004453667 0.81564426 0.17960791
0.015142333 0.81564426 0.17960791
0.0249405 0.81564415 0.17960791
0.034738418 0.81564426 0.17960791
0.045427252 0.81564426 0.17960791
0.055225294 0.81564415 0.1796079
0.060569502 0.81564415 0.1796079
-0.10219189 0.82402581 0.17881526
-0.095020391 0.82402581 0.17881526
-0.085159846 0.82402587 0.17881523
-0.074974313 0.82423681 0.17879528
-0.06516441 0.82382727 0.17883408
-0.05468161 0.82402587 0.17881526
-0.044821005 0.82402587 0.17881528
-0.034960333 0.82402587 0.17881526
-0.025099669 0.82402587 0.17881528
-0.015239166 0.82402587 0.17881523
-0.0053784666 0.82402587 0.17881523
0.0044820555 0.82402581 0.17881525
0.015239168 0.82402587 0.17881526
0.025099667 0.82402587 0.17881523
0.034960326 0.82402581 0.17881522
0.044821002 0.82402587 0.17881528
0.054681614 0.82402587 0.17881525
0.060956333 0.82402593 0.17881526
-0.10207766 0.83422142 0.1778508
-0.094850942 0.8342213 0.17785083
-0.0849142 0.83422154 0.17785078
-0.074977443 0.83422154 0.1778508
-0.065040596 0.83422142 0.17785078
-0.055103775 0.83422136 0.17785078
-0.045167137 0.8342213 0.17785081
-0.035230387 0.83422136 0.17785078
-0.025293533 0.8342213 0.1778508
-0.015356666 0.8342213 0.17785083
-0.0054200003 0.83422142 0.17785081
0.0045166668 0.83422148 0.1778508
0.015356666 0.8342213 0.17785078
0.025293533 0.83422154 0.1778508
0.035230391 0.8342213 0.17785078
0.045167137 0.83422154 0.17785078
0.055103779 0.8342213 0.17785078
-0.10222163 0.84501088 0.17682987
-0.095003881 0.84435934 0.17689145
-0.084944531 0.84478086 0.17685159
-0.074978873 0.8443594 0.17689145
-0.064913407 0.84478092 0.17685159
-0.054954123 0.84435934 0.17689145
-0.044882175 0.84478086 0.17685159
-0.034929059 0.8443594 0.17689145
-0.024850825 0.84478098 0.17685159
-0.014904001 0.84435934 0.17689145
-0.0054621329 0.8445766 0.17687091
0.0045517776 0.8445766 0.1768709
0.014904 0.84435934 0.17689145
0.024850825 0.84478098 0.17685159
0.034929059 0.84435928 0.17689145
0.044882178 0.84478086 0.17685159
0.054954123 0.8443594 0.17689145
0.0601625 0.84631413 0.17670667
-0.10219814 0.85458958 0.17592369
-0.095092051 0.85531497 0.17585516
-0.08504501 0.85488594 0.17589574
-0.075236201 0.85509396 0.17587608
-0.065143555 0.85509396 0.17587608
-0.055050857 0.8550939 0.17587604
-0.044957999 0.85509396 0.17587608
-0.034865402 0.85509396 0.17587607
-0.024772778 0.85509372 0.17587604
-0.014680132 0.85509372 0.17587604
-0.0055049998 0.8550939 0.17587605
0.0045875004 0.85509378 0.17587605
0.014680134 0.85509396 0.17587607
0.024772778 0.85509372 0.17587604
0.034865398 0.85509396 0.17587605
0.044958003 0.8550939 0.17587605
0.055050869 0.85509378 0.17587605
0.060555998 0.8550939 0.17587604
-0.10229028 0.86629015 0.17481709
-0.094963416 0.86556578 0.17488559
-0.08507847 0.86577713 0.17486559
-0.074906096 0.86577713 0.1748656
-0.064733662 0.86577713 0.17486559
-0.055147436 0.86600173 0.17484438
-0.045033883 0.86556584 0.17488559
-0.035141069 0.86577713 0.17486559
-0.024968723 0.86577713 0.1748656
-0.014796268 0.86577708 0.17486562
-0.0055486658 0.86577713 0.17486563
0.004623889 0.86577725 0.17486562
0.014796265 0.86577719 0.17486559
0.024968725 0.86577713 0.17486562
0.035141066 0.86577719 0.17486563
0.045033887 0.86556578 0.17488559
0.055147436 0.86600161 0.17484438
0.060954001 0.86398089 0.17503542
-0.10239851 0.87480551 0.1740119
-0.094951406 0.87480557 0.1740119
-0.085144453 0.87497085 0.17399627
-0.074969813 0.87464023 0.17402753
-0.0651628 0.87480557 0.1740119
-0.054922834 0.87480551 0.17401189
-0.044683002 0.87480557 0.17401192
-0.035373997 0.87480557 0.17401192
-0.025134251 0.87480551 0.1740119
-0.014894401 0.87480557 0.17401192
-0.0055853995 0.87480557 0.17401192
0.0046545002 0.87480551 0.1740119
0.014894399 0.87480557 0.17401192
0.025134251 0.87480551 0.17401189
0.035374001 0.87480557 0.17401192
0.044683002 0.87480557 0.1740119
0.054922834 0.87480551 0.1740119
-0.10214534 0.88396311 0.17314571
-0.095249251 0.8841936 0.17312391
-0.084987521 0.88374597 0.17316629
-0.074969128 0.88396305 0.17314574
-0.065256558 0.8841936 0.17312391
-0.055004645 0.88374603 0.17316629
-0.044981401 0.88396305 0.17314574
-0.035263937 0.88419366 0.17312391
-0.025021708 0.88374603 0.17316629
-0.0149938 0.88396299 0.17314574
-0.0056225997 0.88396299 0.17314574
0.0046855006 0.88396305 0.17314574
0.014993798 0.88396299 0.17314574
0.02502171 0.88374603 0.17316629
0.035263933 0.88419366 0.17312391
0.044981398 0.88396299 0.17314574
0.055004638 0.88374597 0.17316629
0.060136002 0.88765228 0.17279643
-0.10229525 0.89557767 0.17204684
-0.094805628 0.89487606 0.17211331
-0.085021332 0.89511001 0.17209119
-0.075232118 0.89534444 0.17206897
-0.064894058 0.89488959 0.172112
-0.054791603 0.89511007 0.17209114
-0.045344602 0.89510995 0.17209116
-0.034953278 0.89510989 0.17209119
-0.02456167 0.89510995 0.17209117
-0.015114999 0.89511007 0.17209114
-0.0056679999 0.89511013 0.17209114
0.0047233333 0.89511001 0.17209116
0.015114998 0.89511001 0.17209114
0.024561668 0.89511001 0.17209119
0.034953281 0.89510989 0.17209116
0.045344599 0.89511001 0.17209119
0.054791596 0.89510995 0.17209119
0.06045967 0.89510995 0.17209114
-0.1023078 0.90415317 0.1712359
-0.095107891 0.90453279 0.17120008
-0.085597202 0.90453279 0.17120007
-0.075135253 0.90453285 0.17120008
-0.064673409 0.90453279 0.17120007
-0.055162597 0.90453279 0.17120007
-0.045651801 0.90453279 0.17120008
-0.035189915 0.90453285 0.17120008
-0.024728099 0.90453279 0.17120008
-0.0152172 0.90453279 0.17120007
-0.0057064998 0.90453279 0.17120007
0.0047554164 0.90453285 0.17120008
0.0152172 0.90453279 0.17120007
0.024728099 0.90453279 0.17120008
0.035189915 0.90453285 0.1712001
0.045651801 0.90453279 0.17120007
0.055162601 0.90453279 0.17120007
0.0608695 0.90453279 0.17120007
-0.10232025 0.91216737 0.17047811
-0.095115811 0.91234189 0.17046164
-0.084661551 0.91199303 0.17049457
-0.0745885 0.91216743 0.17047808
-0.065025702 0.91216743 0.17047808
-0.055463504 0.91216743 0.17047814
-0.044944245 0.91216749 0.17047809
-0.0344254 0.91216743 0.17047808
-0.024862899 0.91216743 0.17047808
-0.0153001 0.91216743 0.17047808
-0.0057377005 0.91216743 0.17047808
0.0047814166 0.91216749 0.17047811
0.015300101 0.91216743 0.17047808
0.024862899 0.91216743 0.17047811
0.0344254 0.91216743 0.17047808
0.044944253 0.91216749 0.17047812
0.055463504 0.91216743 0.17047808
0.061117001 0.91024864 0.17065948
-0.10223371 0.78552109 0.18192653
-0.094911605 0.78564912 0.18182592
-0.084462553 0.78564912 0.18182591
-0.074884258 0.78564906 0.18182592
-0.065306053 0.78564906 0.18182591
-0.054857109 0.785649 0.18182594
-0.044408165 0.785649 0.18182595
-0.034829933 0.78564912 0.18182591
-0.025251668 0.78564906 0.18182591
-0.014802722 0.78564906 0.18182594
-0.0052245334 0.78564912 0.18182591
0.0043537775 0.785649 0.18182595
0.014802722 0.78564906 0.18182591
0.025251664 0.78564906 0.18182594
0.034829933 0.78564912 0.18182591
0.044408172 0.78564906 0.18182592
0.054857109 0.78564906 0.18182594
0.060952336 0.78564912 0.18182589
-0.10218414 0.79481488 0.18157823
-0.095241472 0.7941643 0.18163967
-0.084998608 0.79435408 0.18162175
-0.074751347 0.7945435 0.18160382
-0.065161876 0.7941528 0.18164077
-0.05520533 0.79435408 0.18162176
-0.044689946 0.79435408 0.18162173
-0.035050999 0.7943542 0.18162172
-0.025411945 0.79435414 0.18162173
-0.014896555 0.7943542 0.18162172
-0.0052578002 0.79435408 0.18162176
0.0043815002 0.79435408 0.18162175
0.014896557 0.79435408 0.18162175
0.025411947 0.79435414 0.18162173
0.035050999 0.79435408 0.18162175
0.044689942 0.7943542 0.18162172
0.05520533 0.79435408 0.18162175
0.061186001 0.79113364 0.18192655
-0.10216163 0.80368626 0.18073937
-0.09474206 0.80428797 0.18068247
-0.085074186 0.80389142 0.18072
-0.075045623 0.80409575 0.18070064
-0.064719357 0.80428803 0.18068242
-0.055060621 0.80389142 0.18071996
-0.045027282 0.80409569 0.18070064
-0.034696706 0.80428809 0.18068245
-0.02504725 0.80389142 0.18071997
-0.015009056 0.8040958 0.18070063
-0.005297333 0.80409557 0.18070064
0.0044144448 0.80409575 0.18070067
0.015009056 0.80409569 0.18070067
0.025047248 0.80389136 0.18072
0.034696706 0.80428803 0.18068247
0.045027278 0.8040958 0.18070062
0.055060625 0.8038913 0.18072
0.060112 0.80573016 0.18054593
-0.1020455 0.81066608 0.18007886
-0.094946325 0.81066608 0.18007886
-0.085185602 0.81066608 0.18007886
-0.075424664 0.81066608 0.18007886
-0.064776503 0.81066608 0.18007886
-0.055015601 0.81066608 0.18007886
-0.04525483 0.81066608 0.18007886
-0.034606669 0.81066608 0.18007886
-0.0248456 0.81066608 0.18007886
-0.015085 0.81066608 0.18007886
-0.005324 0.81066608 0.18007886
0.0044366666 0.81066608 0.18007886
0.015085 0.81066608 0.18007886
0.0248456 0.81066608 0.18007886
0.034606669 0.81066608 0.18007886
0.04525483 0.81066608 0.18007886
0.055015601 0.81066608 0.18007886
0.060339998 0.81066608 0.18007886
