# .PCD v0.7 - Point Cloud Data file format
VERSION 0.7
FIELDS x y z rgba
SIZE 4 4 4 4
TYPE F F F U
COUNT 1 1 1 1
WIDTH 1127
HEIGHT 1
VIEWPOINT 0 0 0 1 0 0 0
POINTS 1127
DATA ascii
0.22880024 0.97682369 -0.33868673 13355461
0.25107351 0.97700018 -0.33931372 12697787
0.26947615 0.97625011 -0.33889794 13224644
0.29248956 0.97478145 -0.33815312 13224646
-0.289386 0.97223097 -0.35690841 12763832
-0.26922137 0.97287786 -0.35761967 12632507
-0.25006869 0.97363889 -0.35715139 12500921
-0.22939545 0.97226137 -0.35737416 12501180
-0.20890696 0.97133964 -0.3569406 12632511
-0.19001365 0.97055727 -0.35606736 12764096
-0.16998233 0.97092217 -0.35594204 12896194
-0.1497217 0.96960849 -0.35503933 12895940
-0.1306445 0.97089076 -0.35568285 12895939
-0.10909276 0.96885896 -0.35541907 12698304
-0.090331428 0.96890938 -0.35399351 12633280
-0.070270672 0.96967024 -0.35381341 13093576
-0.049678545 0.96883875 -0.3528384 13093577
-0.030168416 0.96815079 -0.35238546 13225164
-0.010308553 0.96904266 -0.35257733 13422286
0.010111452 0.96830678 -0.35325089 13422543
0.030546872 0.96869421 -0.35256144 13619919
0.050045073 0.96831369 -0.35078964 13685458
0.07020665 0.96916169 -0.34965017 13619664
0.090092085 0.9690755 -0.34955353 13225162
0.1101888 0.96919805 -0.34945893 13487820
0.12963296 0.96868402 -0.34748974 13356233
0.14965078 0.96835101 -0.34634554 13290697
0.16986705 0.96933371 -0.34611225 13158853
0.18992573 0.96837848 -0.34582475 13224650
0.21008816 0.96836299 -0.34616503 13290440
0.23012963 0.96861738 -0.34603086 13158852
0.24963707 0.9682827 -0.34562692 13027266
0.27036881 0.96878177 -0.34593451 13158851
0.28927532 0.96723622 -0.34579593 13159108
-0.2907826 0.96604311 -0.36377361 12829630
-0.27091813 0.96541286 -0.36363673 13093058
-0.25059384 0.96515638 -0.36350414 12961472
-0.23020992 0.96431667 -0.36343142 12698298
-0.21076448 0.96354765 -0.36238366 12632762
-0.18940412 0.9619568 -0.36108115 12764352
-0.16834907 0.96285284 -0.36253744 12764606
-0.15639907 0.96175015 -0.36134216 12764349
-0.12997974 0.96248007 -0.36170757 12698816
-0.11360668 0.96200019 -0.36097813 12566716
-0.092535235 0.96200007 -0.36097813 12172731
-0.14505859 0.99550003 -0.33941668 12830145
-0.12769076 0.99610007 -0.33924198 12895685
-0.11124415 0.99592859 -0.3392919 12764355
-0.090207763 0.99559993 -0.33938757 13224905
-0.068580188 0.99391663 -0.3378216 13159628
-0.050785024 0.99360007 -0.33727834 13356751
-0.029449953 0.99317253 -0.33659223 13290442
-0.010922582 0.99361819 -0.33723781 13356235
0.010717164 0.9933123 -0.33779714 13553871
0.030874377 0.99162054 -0.33687821 13685458
0.049987078 0.99180555 -0.33565426 13554127
0.070388749 0.99020803 -0.33591816 13619920
0.089842908 0.99018955 -0.33461723 13093319
0.1097574 0.9907217 -0.33574769 13290699
0.1303841 0.98990631 -0.33469585 13553612
0.14991644 0.99078059 -0.33435142 13356234
0.1696431 0.9880994 -0.33418986 13224647
0.19043519 0.98907089 -0.3329483 13224646
0.21016966 0.98873663 -0.33150059 13224646
0.23003365 0.98876947 -0.33104837 13224131
0.25018033 0.98924679 -0.33186087 13092802
0.26961094 0.98818761 -0.33185193 13224389
0.28928271 0.98872125 -0.33093134 13356231
-0.28977081 0.98869604 -0.34939322 12698042
-0.27044469 0.98788804 -0.34942892 12763836
-0.25046331 0.98630774 -0.34866813 12632508
-0.2304581 0.98681641 -0.34890994 12961731
-0.21008447 0.98807591 -0.3477698 12435386
-0.19028571 0.98818189 -0.34738299 12698558
-0.17005409 0.98707271 -0.34652781 12895937
-0.14992996 0.98786074 -0.34513429 12961732
-0.12958337 0.9868893 -0.34605423 13159112
-0.11023995 0.98601019 -0.34581304 13093831
-0.089996517 0.98613805 -0.34451944 13093318
-0.070393883 0.98473752 -0.34491643 13093321
-0.050212257 0.98256719 -0.34453958 13290958
-0.030323537 0.98440403 -0.34413669 13225163
-0.0095918905 0.98345464 -0.34424162 13356750
0.0099326093 0.98304862 -0.34368131 13619919
0.029636012 0.98181659 -0.34365955 13817555
0.049522594 0.98216671 -0.3420397 13882836
0.068918228 0.98090297 -0.34248561 13619922
0.090859473 0.98079288 -0.34235817 13224903
0.10882234 0.98033303 -0.34264919 13488075
0.12413335 0.98000002 -0.34066668 12632261
0.15342566 0.97999984 -0.34138468 13422282
0.1708 0.98000002 -0.34066668 12960963
0.18620004 0.98000002 -0.34090003 13290949
0.23986669 0.98000002 -0.34066668 13224646
0.24173334 0.98000002 -0.34066668 12829115
0.26413336 0.98000002 -0.34066668 13357257
-0.043585718 1.0170001 -0.31866002 13225679
-0.021308573 1.0170001 -0.31866002 12962505
-0.018402858 1.0170001 -0.31866002 13094095
0.070157409 1.0167273 -0.31875014 13422034
0.092301629 1.0155653 -0.3183772 13684943
0.1102 1.0150001 -0.31803143 13685200
0.12992042 1.0140883 -0.31808388 13816528
0.15092669 1.0150313 -0.31785983 13618892
0.17013872 1.0147103 -0.31753114 13487306
0.18962733 1.0146922 -0.31768498 13158853
0.21104141 1.0148567 -0.31672034 13355977
0.22989994 1.0147377 -0.31515747 13355719
0.25001597 1.0145538 -0.31518093 13422025
0.26948279 1.0126466 -0.31597912 13487562
0.29068533 1.0112414 -0.31621206 13553355
-0.28970227 1.0120287 -0.33444184 12961472
-0.26979747 1.0103163 -0.33469811 12829887
-0.24985866 1.0094206 -0.33387649 12895679
-0.23001768 1.0090986 -0.33471879 13158853
-0.21015526 1.0088842 -0.33415458 12698559
-0.18967341 1.0086739 -0.3337113 12961473
-0.16960537 1.0094255 -0.33301672 13093317
-0.14945079 1.0086898 -0.33259091 13158855
-0.12963957 1.0086372 -0.33237922 13356490
-0.11010149 1.0086147 -0.33205888 13356491
-0.089606427 1.0066909 -0.33106092 13290699
-0.070596568 1.0071245 -0.33002403 13356493
-0.049295232 1.0073935 -0.32771155 13488078
-0.030030368 1.0076137 -0.32705009 13356236
-0.0098868338 1.0082264 -0.32843137 13290956
0.009668285 1.0082015 -0.32921505 13619407
0.029592581 1.0085624 -0.32822055 13553872
0.050266851 1.0099884 -0.32633394 13751250
0.069452353 1.0088179 -0.32633248 13553616
0.089591764 1.0076754 -0.32489079 13619406
0.10984708 1.0060124 -0.32559568 13619407
0.12884258 1.0059198 -0.32536653 13685200
0.1500864 1.0057274 -0.32425746 13750737
0.16971253 1.005055 -0.32476503 13684942
0.18845394 1.0048002 -0.32369334 13158853
0.21043617 1.0060396 -0.32329357 13027269
0.23091678 1.0081499 -0.32274538 13356235
0.25001362 1.0063335 -0.322678 13487562
0.27092868 1.0038811 -0.32301208 13553355
0.29004687 1.0039093 -0.3223781 13487817
0.30000001 1 -0.32476193 13290180
-0.30000001 1 -0.34190479 12763581
-0.28985831 1.0033668 -0.34114131 13026752
-0.26988369 1.0018001 -0.34194508 12698042
-0.24919516 1.0014484 -0.34239796 12895424
-0.23009731 1.0007499 -0.34144592 13093060
-0.21079367 1 -0.34031752 12500924
-0.18897995 1.00015 -0.34119385 12764606
-0.1714099 1.0005001 -0.34091079 12698303
-0.14990477 1 -0.34000006 12501698
-0.13238096 1 -0.34000003 12961739
-0.10761905 1 -0.34000003 11977410
-0.084761918 1 -0.34000003 13225163
0.15535524 1.039 -0.29982573 13355981
0.16722953 1.039 -0.29982573 13684685
0.21670572 1.039 -0.29982573 13160655
0.230929 1.0384375 -0.29892123 13487306
0.2483705 1.0389998 -0.29908356 13355722
0.26796308 1.0389999 -0.29962778 13487564
0.28993049 1.0389999 -0.2998257 13357000
-0.29079634 1.0389998 -0.31887412 12895935
-0.26907307 1.0386999 -0.31853437 13027009
-0.24934497 1.0361152 -0.31842232 13224386
-0.22831923 1.0375 -0.31796616 13422026
-0.21044308 1.0361559 -0.31781164 12764096
-0.18863647 1.0359232 -0.31704524 13027267
-0.17026295 1.0357823 -0.31607157 13290184
-0.14950709 1.0361878 -0.3168945 13422028
-0.12872548 1.0338646 -0.3162207 13487822
-0.11035143 1.0316564 -0.3162137 13685200
-0.089590989 1.0327917 -0.31595373 13619408
-0.070283271 1.032513 -0.3147729 13685457
-0.049092174 1.0312289 -0.31499857 13422286
-0.029759862 1.0292414 -0.31412843 13290957
-0.0099282907 1.0316675 -0.3144733 13356493
0.009956521 1.0322291 -0.31445482 13553870
0.02993368 1.0296993 -0.31442526 13488076
0.049517993 1.0291024 -0.31396043 13619406
0.070279032 1.0311158 -0.31370696 13619408
0.090221941 1.0310972 -0.31123653 13554128
0.10995299 1.0304109 -0.31098992 13816784
0.13045377 1.0301304 -0.31088236 13750993
0.15011281 1.0297902 -0.30996254 13553614
0.16964102 1.0308001 -0.30899933 13619149
0.19020297 1.0292894 -0.30999857 13290184
0.20968476 1.02846 -0.30760464 13224391
0.22980154 1.0297037 -0.30577016 13355720
0.25013328 1.0311706 -0.30662233 13355975
0.27022412 1.0290337 -0.30635226 13421769
0.28970122 1.027859 -0.30716577 13553610
-0.28998691 1.0286007 -0.32528394 12895422
-0.26991582 1.0267754 -0.32475743 13027008
-0.24987899 1.0265833 -0.3246606 13158853
-0.23044209 1.0268335 -0.32523322 13422025
-0.21001253 1.0253805 -0.32457244 12764095
-0.19025229 1.0258172 -0.3244884 12961475
-0.17002997 1.0253093 -0.32356089 13093060
-0.15026657 1.0262965 -0.32380581 13158855
-0.13090807 1.0242003 -0.32355332 13422540
-0.1090091 1.0219738 -0.32282799 13554128
-0.090264663 1.0222288 -0.32279909 13488079
-0.069736227 1.0220296 -0.32263824 13554127
-0.055754494 1.0219284 -0.32201001 13224904
-0.033282638 1.0209231 -0.32168266 13290443
-0.0077805719 1.0212002 -0.32153028 13553871
0.0094002374 1.0212501 -0.3216109 13620178
0.027793145 1.0204003 -0.32192728 13488076
0.044406667 1.021 -0.3212086 13817042
-0.089525536 1.0562003 -0.29935494 13487821
-0.066838734 1.0580001 -0.29926288 13948625
-0.024663283 1.0546668 -0.29943329 13553613
-0.018137144 1.0580001 -0.29926288 13619917
0.014538504 1.0580001 -0.29897499 13553615
0.030880559 1.0580003 -0.29819605 13553615
0.049944878 1.0546298 -0.29793018 13487819
0.070704103 1.0533669 -0.2986131 13488074
0.090309456 1.0525999 -0.29662943 13553357
0.11034262 1.0541326 -0.29645368 13553869
0.12975806 1.0545853 -0.29726225 13685200
0.1501381 1.0517589 -0.29658586 13685199
0.17046154 1.0511833 -0.29494455 13618892
0.18966182 1.0528308 -0.29510385 13487563
0.21026541 1.0522839 -0.29529807 13027268
0.22976053 1.0517105 -0.29401121 13553355
0.25013745 1.0509473 -0.29345211 13487561
0.27023515 1.0507675 -0.29335272 13619148
0.29022741 1.0509255 -0.29270092 13487305
-0.28969288 1.0513475 -0.31198388 12829373
-0.27052271 1.0507433 -0.31209961 12895422
-0.24945946 1.0495442 -0.31063926 12895423
-0.23023176 1.0494024 -0.30918971 13487564
-0.20977086 1.0489351 -0.30963257 12895682
-0.19090809 1.050784 -0.30881789 13158342
-0.16954893 1.0506124 -0.30733281 13422028
-0.15024243 1.049598 -0.3071183 13553614
-0.13045543 1.0499876 -0.30723882 13882579
-0.10983856 1.0494778 -0.30684823 13882579
-0.090327218 1.0479257 -0.30612916 13882579
-0.0694215 1.0487641 -0.30490011 13685458
-0.050425354 1.0494384 -0.30517295 13487822
-0.030193621 1.0477966 -0.30472058 13422284
-0.0099587347 1.0486997 -0.30463088 13488078
0.0099499309 1.0480441 -0.30423823 13488077
0.029626489 1.0479555 -0.30412227 13487821
0.049505688 1.0460876 -0.30388469 13422282
0.069587328 1.0437306 -0.30416709 13356490
0.087366134 1.0433 -0.30258742 13092550
0.11076082 1.0438529 -0.30233285 13487821
0.12931198 1.0442306 -0.30245233 13685201
0.14780729 1.0433749 -0.30224553 13422029
0.17344616 1.0419999 -0.3011325 13685199
0.19144307 1.0438181 -0.30241692 13421770
0.20766921 1.0424999 -0.3011665 13290443
0.27290478 1.0420001 -0.30069146 13619660
-0.28878286 1.0420001 -0.32053906 12962242
0.13552001 1.0780001 -0.27822667 13750990
0.14168 1.0780001 -0.27822667 13817040
0.21765333 1.0780001 -0.27822667 13487299
0.22786625 1.0770476 -0.27788129 13355977
0.25265032 1.076208 -0.27733436 13487305
0.26999462 1.0759999 -0.277165 13618890
0.28921273 1.0725534 -0.27564183 13618889
-0.29009524 1.076526 -0.29743096 13092803
-0.26879185 1.0752609 -0.29599085 13092800
-0.25136939 1.076333 -0.29638049 13224390
-0.22938031 1.0748461 -0.29641044 13751251
-0.21006867 1.0738547 -0.29522225 13290185
-0.18988788 1.0727243 -0.294853 13619150
-0.16971052 1.0716799 -0.29410484 13685200
-0.14990315 1.0717272 -0.29374239 13685201
-0.12971166 1.0724262 -0.29367903 13882581
-0.11032028 1.0716867 -0.29357198 13882836
-0.089845166 1.0706205 -0.2935428 13685715
-0.069451168 1.0697931 -0.29285637 13685458
-0.049698591 1.0685338 -0.29178011 13553616
-0.030344119 1.0686123 -0.29120931 13422285
-0.010409756 1.0699266 -0.29319471 13751250
0.010338838 1.0688493 -0.29231614 13619407
0.030236 1.0675558 -0.29109758 13554126
0.050688464 1.0693065 -0.29140887 13685200
0.069706224 1.0685284 -0.29110152 13356490
0.090311773 1.0699266 -0.28718716 13816530
0.10917972 1.0701976 -0.28741059 13619149
0.13053763 1.0686631 -0.28743035 13684944
0.14984004 1.0695328 -0.28655344 13750737
0.16900821 1.0683818 -0.28506333 13619150
0.19004594 1.0686158 -0.28494078 13355977
0.20986009 1.0679002 -0.28475183 13421769
0.22989886 1.0674061 -0.28433675 13289926
0.24958064 1.0670162 -0.28380024 13487561
0.26969549 1.0664907 -0.28375316 13619147
0.28809118 1.0637178 -0.28305581 13552842
-0.29001948 1.065805 -0.30259997 12895168
-0.26933667 1.0651001 -0.30353308 12829372
-0.25090039 1.0671053 -0.3026292 12961216
-0.23034722 1.0658151 -0.30146834 13750992
-0.21139552 1.0658439 -0.30210981 13092804
-0.18965344 1.0632002 -0.30133876 13488077
-0.17076413 1.0618 -0.30101141 13487822
-0.14906931 1.0636923 -0.30071551 13685201
-0.13083643 1.0623847 -0.30096948 14013910
-0.10916315 1.0613 -0.30019635 13684689
-0.089932382 1.0610001 -0.30011144 13094091
-0.076290965 1.0610001 -0.30011144 13750736
-0.050523818 1.061 -0.30011147 13618895
-0.034356192 1.061 -0.30011144 13421774
-0.0080838101 1.061 -0.30011144 13750993
0.004041905 1.0610001 -0.30011144 13553615
0.031324763 1.0610001 -0.30011144 13685458
0.29802859 1.098 -0.25829145 13948111
-0.22482859 1.098 -0.27920574 14211288
-0.21259594 1.0965713 -0.27854183 13092543
-0.17003316 1.0979999 -0.27899665 13553099
-0.15212484 1.0978124 -0.27837381 13552586
-0.12869266 1.0972855 -0.27857503 13684688
-0.10950798 1.0950739 -0.27791697 13948372
-0.091030605 1.0950711 -0.27763766 13948374
-0.069243036 1.0933249 -0.27644914 14211803
-0.050812948 1.0941665 -0.27683392 14211546
-0.030016404 1.0948918 -0.27722555 13816786
-0.010533939 1.0946809 -0.27613735 13751250
0.010422838 1.0946201 -0.27625531 14079958
0.030609107 1.0940627 -0.27572051 13816786
0.04979682 1.0940344 -0.27524212 13948629
0.07031931 1.0927143 -0.27547333 13750994
0.089706466 1.0913906 -0.2750397 14013907
0.11035954 1.0918282 -0.27511743 13685199
0.13057333 1.0911497 -0.2741259 13619149
0.14996505 1.0892432 -0.27431872 13882322
0.1702486 1.08858 -0.27435455 13882580
0.18992323 1.089595 -0.27381343 13882064
0.2103606 1.0892404 -0.27347174 13618891
0.23030065 1.0893528 -0.26992467 13487306
0.24976029 1.0903846 -0.27039942 13487305
0.26938069 1.0892466 -0.26905373 13553099
0.29020315 1.0909609 -0.2667551 13750991
-0.29022941 1.08884 -0.28867984 13158338
-0.27074555 1.0894783 -0.28702894 13224389
-0.24956061 1.0890911 -0.28766719 13553355
-0.23044436 1.0895875 -0.28726339 14079959
-0.20991616 1.0890001 -0.28607267 13355721
-0.19029784 1.0902066 -0.2854417 13684942
-0.17012057 1.0888644 -0.28442627 13882578
-0.15007046 1.0893452 -0.28418091 13882323
-0.13074923 1.0883726 -0.28377509 14014166
-0.10962283 1.0886123 -0.28417203 13948116
-0.089571983 1.0881888 -0.2843644 13948373
-0.070507385 1.0865684 -0.28433692 13882837
-0.05046327 1.0847567 -0.28287113 14014425
-0.029947869 1.0843701 -0.28193188 13882837
-0.010048646 1.0853599 -0.28387943 13751508
0.0098493258 1.0871396 -0.28404701 13750995
0.029975874 1.0853333 -0.28321484 13422288
0.049604453 1.0850751 -0.2831468 13882580
0.069490083 1.0836945 -0.28244421 13553361
0.086180158 1.082231 -0.28106087 13882837
0.11518104 1.0824548 -0.28106102 13488333
0.12399795 1.0835001 -0.28153494 13618893
0.17810763 1.0810001 -0.28106001 13816529
0.18016668 1.0810001 -0.28106001 13882576
0.20950954 1.0821429 -0.28076667 13816525
0.09884572 1.1160001 -0.25827432 14342616
0.10203429 1.1160001 -0.25827432 14276826
0.15549856 1.1145 -0.25845647 13750992
0.16636764 1.1150001 -0.25874957 13882834
0.19426112 1.1132779 -0.25799507 14013908
0.21054098 1.1106501 -0.25628918 13684684
0.22979671 1.1103333 -0.25653744 13684687
0.24957603 1.1096891 -0.25694427 13552841
0.27152002 1.1110243 -0.2573725 13487562
0.29046616 1.1084909 -0.25567725 13684685
-0.29014608 1.1097212 -0.27444229 13552841
-0.2704373 1.1099694 -0.27387229 13355720
-0.2500149 1.1101837 -0.27453402 13421514
-0.23030506 1.1103082 -0.27385807 14014164
-0.20912467 1.1087092 -0.2740407 13290442
-0.1902473 1.1089833 -0.27395394 13487563
-0.17005078 1.1078053 -0.27183735 13816785
-0.14962834 1.1096092 -0.27249384 14014165
-0.13038749 1.1081508 -0.27199274 13948374
-0.11078403 1.1090176 -0.27187216 13948374
-0.089823566 1.1091614 -0.27146056 14079960
-0.070368193 1.1103063 -0.26911581 14277340
-0.049331233 1.1080567 -0.26830482 13948631
-0.030284386 1.1078782 -0.26766568 14014168
-0.010469296 1.108204 -0.26884744 14014165
0.0099585727 1.1102741 -0.26798257 13948629
0.029774018 1.109167 -0.26790783 13685457
0.05015998 1.1088541 -0.26751965 13751247
0.069250315 1.1104262 -0.26817301 13751251
0.091189109 1.1091167 -0.26603109 14079957
0.10946794 1.1081512 -0.26514101 13948371
0.12993179 1.1080329 -0.26426789 13553355
0.15079311 1.1078364 -0.26515779 13882321
0.17026152 1.1076168 -0.26496753 13882577
0.18957075 1.1068599 -0.26399213 13816529
0.20945135 1.1051704 -0.26458517 13619404
0.22844033 1.1021875 -0.26242548 13684943
0.24969938 1.1027143 -0.26280031 13684686
0.2711027 1.1039997 -0.26257801 13684684
0.2830216 1.1020001 -0.26203111 13816781
-0.28932732 1.1022999 -0.28145367 13092803
-0.268731 1.1022145 -0.28102702 13224129
-0.24960145 1.1020001 -0.28108719 13487560
-0.233694 1.1020001 -0.28057271 14277335
-0.20360763 1.102 -0.28022286 13224385
-0.19015464 1.1020001 -0.28060454 13488588
0.19346 1.138 -0.23952192 14211288
0.20050478 1.138 -0.23952192 14211285
0.25469524 1.138 -0.23952194 13618895
0.26444954 1.138 -0.23879938 13750220
0.29154477 1.138 -0.23952195 13882320
-0.29080144 1.1377503 -0.25816077 14079185
-0.26926768 1.1345176 -0.25748816 13816528
-0.2500889 1.1357371 -0.25760198 14145749
-0.22989665 1.1361055 -0.25745836 14211285
-0.2091502 1.1349169 -0.25805441 13816529
-0.19059442 1.1341367 -0.25804961 14079959
-0.16965972 1.1321951 -0.2569097 14277337
-0.14951406 1.1301178 -0.2565448 14277337
-0.13122381 1.1340504 -0.25623518 14211289
-0.10934496 1.1307694 -0.25646052 14211289
-0.088856615 1.131375 -0.2554681 14211289
-0.070030391 1.1312035 -0.25567281 14277083
-0.050361056 1.1303093 -0.25612518 14408924
-0.029274965 1.1302757 -0.25475514 14277339
-0.010066415 1.1324668 -0.25520203 14277596
0.010021539 1.1319504 -0.25580138 14408667
0.029623909 1.1305161 -0.25595343 14277081
0.05040656 1.1300319 -0.25487301 14145750
0.069788694 1.1299695 -0.25476524 13948371
0.089859419 1.1287276 -0.25362414 14211544
0.11034623 1.1298314 -0.25365987 14079957
0.13005149 1.129012 -0.25225469 13882579
0.1496069 1.1297376 -0.25233105 14013908
0.17045371 1.1289402 -0.25077295 14013907
0.18939303 1.1292069 -0.24981476 14014164
0.20956741 1.1307576 -0.24884149 13816528
0.22998567 1.1292136 -0.2472039 13619149
0.24964622 1.126829 -0.24711715 13553097
0.26939049 1.1283636 -0.24846369 13618891
0.28970879 1.1274641 -0.24640341 13684939
-0.28991956 1.126695 -0.26458833 13882321
-0.26960784 1.1249597 -0.26466256 13684685
-0.25030959 1.1259837 -0.26450637 13948114
-0.22974001 1.1273391 -0.2644479 14145493
-0.21075431 1.1251851 -0.26514819 13487563
-0.19025461 1.1241851 -0.2645967 13882322
-0.17028262 1.1222813 -0.26319653 13948373
-0.15031731 1.1208484 -0.26398754 14277082
-0.13002931 1.1241027 -0.26332593 14211031
-0.1096035 1.1215558 -0.26442239 14145752
-0.090390645 1.1218283 -0.2635265 14342874
-0.070370756 1.1218572 -0.26237434 14343133
-0.051490914 1.12 -0.26172125 14343131
-0.029010391 1.1209091 -0.26135033 14211545
-0.0091281701 1.1221156 -0.26322097 14079959
0.0090666683 1.12 -0.26186672 14474715
0.029229483 1.120857 -0.26285401 14079702
0.050185472 1.1211579 -0.26250112 13948629
0.070834793 1.1206318 -0.26294038 14079445
0.083466671 1.12 -0.26213336 14342874
0.10773334 1.12 -0.26133335 14146264
0.12053334 1.12 -0.26133335 14013647
0.14506668 1.12 -0.26133335 14014164
-0.089162074 1.1558334 -0.23923731 14343131
-0.066079371 1.1563333 -0.23897558 14145498
-0.050345641 1.1535832 -0.23895486 14277340
-0.027299335 1.1555001 -0.23880203 14671840
-0.016105399 1.1533333 -0.23908573 14606049
0.012120954 1.1570002 -0.23911335 14408923
0.029700637 1.1552222 -0.23874596 14408669
0.050467242 1.1570001 -0.23911336 14211543
0.063910484 1.1570001 -0.23911335 14145488
0.091410764 1.1564286 -0.23899524 13619153
0.11091482 1.1552727 -0.23895551 14079184
0.13160221 1.1527692 -0.23660092 13948370
0.14978147 1.1534251 -0.23666552 14013908
0.17065488 1.1526411 -0.2366849 14277334
0.18941924 1.1506001 -0.23582916 14145493
0.21062963 1.1497748 -0.23569298 13882322
0.23031488 1.1514912 -0.23481169 13882322
0.25017229 1.150161 -0.23455472 13882322
0.27045837 1.1508167 -0.23296234 13948369
0.28933555 1.1506563 -0.23350742 14079700
-0.29016092 1.1486782 -0.25161588 14211285
-0.26943591 1.1480712 -0.25037202 14079956
-0.25014016 1.1497537 -0.25080508 14342873
-0.22944705 1.1495845 -0.24910598 14540252
-0.21015106 1.1496186 -0.24923599 13816787
-0.19023958 1.1495636 -0.25020269 14343130
-0.1698408 1.149034 -0.24861424 14408668
-0.15090984 1.1494924 -0.24737659 14474716
-0.12946863 1.1493145 -0.24719821 14474717
-0.11052244 1.1507849 -0.24704815 14409180
-0.090607241 1.1481897 -0.24549967 14277339
-0.069494136 1.1485316 -0.2458601 14211289
-0.049068451 1.1474516 -0.24643359 14343131
-0.030412477 1.1469402 -0.24453755 14408926
-0.0089968881 1.148577 -0.24530965 14474719
0.0095065506 1.1492459 -0.24555999 14408924
0.029857503 1.1483833 -0.24573995 14540253
0.049319785 1.1499109 -0.24553262 14211800
0.070042707 1.1494914 -0.24507226 13751249
0.09013325 1.1481303 -0.2436392 14014163
0.11016702 1.1473635 -0.24376763 14013908
0.12891164 1.1452 -0.24312834 14079699
0.15000021 1.1446668 -0.2431023 14211288
0.16845472 1.1445454 -0.24248262 14211031
0.18634541 1.1420001 -0.24072637 14145239
0.21102645 1.1431766 -0.24189103 13816273
0.22805144 1.1430001 -0.24111813 13487821
0.2447143 1.1420001 -0.24036381 13487311
0.27528909 1.1425 -0.24155667 13750735
0.28272039 1.1444 -0.24173906 13816529
0.25091583 1.1762002 -0.21865983 13750479
0.26800829 1.1751539 -0.21858428 13882834
0.29265037 1.1741428 -0.21869025 14211286
-0.29048488 1.1721516 -0.23682551 14342616
-0.26888201 1.1719522 -0.23618729 14277079
-0.24985227 1.1731569 -0.23529902 14474460
-0.22938997 1.1697721 -0.23598729 14803424
-0.21028151 1.1700004 -0.23573004 13948373
-0.18984242 1.1700194 -0.23649825 14474716
-0.16920394 1.1688755 -0.23458819 14540253
-0.1495446 1.1698223 -0.23371004 14671841
-0.1303381 1.1679095 -0.2342702 14474717
-0.1100461 1.1699419 -0.23442347 14606303
-0.090809226 1.1712228 -0.23406589 14343132
-0.070509776 1.1704606 -0.23369876 14343131
-0.049668133 1.17046 -0.23288591 14343131
-0.03056691 1.1707226 -0.23186098 14408669
-0.0095954901 1.1689414 -0.23324303 14408925
0.0097816717 1.1689385 -0.23292586 14343130
0.030162776 1.1691194 -0.23215719 14277081
0.049953468 1.1684521 -0.2323142 14211287
0.070076033 1.1673998 -0.23334232 14146008
0.090520918 1.1688421 -0.23143402 14277336
0.1100056 1.1698315 -0.23106553 14014164
0.12892963 1.1692716 -0.22887075 14013910
0.15068291 1.1674563 -0.22752362 14342873
0.16979983 1.1668552 -0.22657017 14145493
0.19037744 1.1676672 -0.22604957 13948115
0.20923698 1.167954 -0.22674131 13882065
0.22931103 1.1681865 -0.22504115 13948114
0.25027519 1.1670365 -0.22456452 13882064
0.27002898 1.1665609 -0.22395346 13948114
0.29026997 1.1656668 -0.22371249 14013652
-0.28991991 1.162889 -0.24358821 14211286
-0.27117574 1.1621853 -0.24305187 14211030
-0.25061795 1.1621201 -0.24255978 14606045
-0.23551717 1.161 -0.24215145 14869476
-0.20550492 1.1610001 -0.24246737 13816787
-0.1878864 1.1610001 -0.24283189 14474202
-0.16957636 1.1610001 -0.24255353 14474717
-0.14661773 1.161 -0.24215145 14606559
-0.13821429 1.161 -0.24215144 14606303
-0.22230001 1.197 -0.21774001 14737377
-0.20975414 1.195667 -0.21795096 14145749
-0.18924637 1.1954447 -0.21808743 14540508
-0.17024022 1.1952224 -0.21829993 14474460
-0.15012984 1.1952224 -0.21829993 14606817
-0.12856145 1.1963335 -0.2176175 14080217
-0.11349126 1.1936666 -0.21845859 14408153
-0.088324614 1.1944404 -0.21690649 14540767
-0.069029532 1.1938573 -0.21700168 14211546
-0.050060328 1.194667 -0.21731305 14211545
-0.030416869 1.1942903 -0.21665555 14079959
-0.010771429 1.1960912 -0.21684748 14277080
0.0091078794 1.1955457 -0.21778359 14343131
0.034359951 1.1955882 -0.21721275 14145749
0.050310481 1.1934001 -0.21617058 13948372
0.069874913 1.1958234 -0.21658517 14474717
0.090422481 1.1943001 -0.21553656 14408924
0.10890275 1.1911111 -0.21533646 14343131
0.13097233 1.1935332 -0.2145744 14343130
0.14946939 1.1923169 -0.21493903 14145495
0.17070001 1.1903844 -0.21429613 14277079
0.19043316 1.1899277 -0.21337377 14013907
0.20984119 1.1895802 -0.21395504 13684942
0.23039047 1.1901945 -0.21250059 13750735
0.2501013 1.1894996 -0.21081188 13619149
0.27036604 1.1899999 -0.21095283 13948113
0.28979099 1.1905206 -0.21081722 14145238
-0.28957489 1.1896468 -0.22760834 14079701
-0.2705704 1.189508 -0.22570603 14276823
-0.25034675 1.1889307 -0.22472331 14474716
-0.23027538 1.1883219 -0.22500208 14605790
-0.20943248 1.1865096 -0.22532374 14014165
-0.1902041 1.1851377 -0.22572511 14145752
-0.17050929 1.1853719 -0.22443372 14211544
-0.15044938 1.1857059 -0.22338034 14540255
-0.12988064 1.1884165 -0.22408587 14013910
-0.10945536 1.1849023 -0.22356613 14606304
-0.089801989 1.1850001 -0.22370566 14474461
-0.070526719 1.1832563 -0.22355571 14343131
-0.051360961 1.1833999 -0.22337486 14277337
-0.029764835 1.1835184 -0.22221272 14408667
-0.010514286 1.1867 -0.22331151 14277338
0.010217529 1.1852162 -0.22333615 14408667
0.029845079 1.1852221 -0.22248425 14211287
0.050582502 1.1838964 -0.22266036 13882834
0.070623912 1.1852162 -0.2239466 14408668
0.087707631 1.1842306 -0.22235292 14474202
0.11022436 1.1827142 -0.22125375 14408920
0.12985674 1.1827142 -0.22125375 14144981
0.14884642 1.1827142 -0.22125383 14342875
0.16606137 1.1838572 -0.22050191 14408407
0.20808096 1.1810001 -0.22157811 13684174
-0.016253334 1.2190001 -0.19852287 14672096
0.076622859 1.2190001 -0.19852287 14541275
0.082427621 1.2190001 -0.19852287 14343386
0.10936172 1.2190001 -0.19852287 14671584
0.13118763 1.219 -0.19852287 14474715
0.15119173 1.219 -0.19780841 14408923
0.16940975 1.219 -0.19780841 14408665
0.19039619 1.219 -0.19752774 14211798
0.21251938 1.2165217 -0.19680505 13684943
0.23009795 1.21652 -0.1968174 13750736
0.24951297 1.2137432 -0.19633676 13882066
0.27077445 1.2153336 -0.19598886 14013909
0.29045436 1.2150544 -0.19624598 14342875
-0.28981993 1.2107145 -0.21307822 14277081
-0.27036563 1.2107388 -0.21251766 14342873
-0.24968058 1.2101967 -0.21239774 14408667
-0.23053347 1.2112679 -0.21137498 14606045
-0.20941922 1.2109691 -0.20993334 14277081
-0.18980065 1.2103969 -0.20994577 14606047
-0.17001635 1.2100146 -0.20969556 14672097
-0.15003014 1.2115158 -0.21036881 14803682
-0.13007708 1.209942 -0.20958494 14672096
-0.11006624 1.2120869 -0.21106043 14737890
-0.089988708 1.2111228 -0.21002692 14606047
-0.070286624 1.2098695 -0.20853779 14277082
-0.049528774 1.2094288 -0.20846292 14343131
-0.029737301 1.2102001 -0.20758985 14343389
-0.010226804 1.2088699 -0.20796344 14343131
0.010734412 1.2117319 -0.20940718 14474717
0.029511658 1.2102225 -0.20972648 14408923
0.049492415 1.2115717 -0.20796947 14211288
0.07015945 1.2083279 -0.20672619 14540253
0.089678265 1.2088753 -0.20569287 14474459
0.11049636 1.2104914 -0.20606701 14606045
0.12915474 1.2092408 -0.20519048 14474716
0.15045254 1.2083585 -0.20545717 14343131
0.16968895 1.210157 -0.20488366 14145493
0.18925214 1.2082103 -0.20305462 13882064
0.20964603 1.2049743 -0.20311579 13947857
0.22901934 1.2050344 -0.20217651 14013907
0.25022727 1.2026314 -0.20152311 13882320
0.26987836 1.2040868 -0.20197228 14079702
0.2894901 1.2019999 -0.20154545 14277081
-0.2947762 1.202 -0.22093906 14211287
-0.28942227 1.2342224 -0.19708152 14474461
-0.26949 1.2350001 -0.19774623 14737374
-0.25078595 1.2353847 -0.19793263 14869217
-0.22979417 1.2340436 -0.19678001 14869475
-0.20828503 1.2328001 -0.19719605 14145753
-0.19031098 1.2320937 -0.19742146 14803683
-0.16930091 1.2318126 -0.19744979 14935269
-0.14986531 1.2319999 -0.19700667 14803425
-0.12959489 1.23075 -0.19735329 14935268
-0.11034973 1.2320001 -0.19538361 14935269
-0.089615829 1.2316747 -0.19561495 14935269
-0.070546404 1.2305248 -0.19564411 14869476
-0.049707338 1.2319751 -0.19633617 14671840
-0.029857166 1.2304128 -0.19481565 14343131
-0.010611759 1.2302185 -0.19675396 14540768
0.010843038 1.2315626 -0.1972627 14343387
0.029633109 1.2315528 -0.19617328 14672097
0.049405664 1.2334443 -0.19584373 14803682
0.070057124 1.2317661 -0.19435097 14672096
0.090333216 1.230478 -0.19502994 14737888
0.11011407 1.2299784 -0.19362502 14803682
0.12976655 1.23112 -0.19326177 14606046
0.14960019 1.230431 -0.1912239 14737632
0.17024551 1.2302637 -0.19070417 14539996
0.18976197 1.2298421 -0.18987462 14342873
0.20903973 1.2295399 -0.18963952 14145494
0.22982149 1.2292545 -0.18800059 14079957
0.25022379 1.2310766 -0.18735339 13816786
0.26999074 1.2298199 -0.18710667 14079958
0.29013872 1.2298565 -0.1859258 14277081
-0.2905958 1.2266564 -0.20297521 14211288
-0.26920301 1.2271999 -0.20289066 14342874
-0.25078064 1.2272142 -0.20277511 14211803
-0.22867459 1.2277143 -0.20205298 14277597
-0.2112792 1.2275716 -0.20191935 14145752
-0.19126001 1.2251821 -0.20228687 14606304
-0.16860181 1.2255455 -0.20234676 14869221
-0.1507788 1.2255456 -0.20255856 14803682
-0.12933217 1.2234445 -0.20157708 14803682
-0.10762578 1.2266876 -0.20239939 14738148
-0.092323527 1.2254999 -0.20296231 14869733
-0.06996429 1.2244999 -0.20175099 14540769
-0.050200742 1.2256669 -0.2019432 14474718
-0.033803239 1.2238001 -0.20163564 14474975
-0.0081533333 1.223 -0.20150383 14474974
0.0097907623 1.2243 -0.20148337 14474715
0.030299528 1.2235 -0.20158623 14474463
0.051830269 1.2287859 -0.20161901 14540510
0.063695952 1.2272501 -0.20161739 14606815
-0.1882505 1.2589999 -0.17865811 14738147
-0.16307048 1.2590001 -0.17865811 15132391
-0.15627588 1.2590001 -0.17865811 15198185
-0.1330943 1.2590001 -0.17865811 14935267
-0.067792311 1.2589999 -0.1775513 14737891
-0.050531294 1.2589999 -0.17865811 14540765
-0.030674765 1.2548332 -0.17846178 14474975
-0.01558762 1.2590001 -0.17865811 15001317
0.013189524 1.2590001 -0.17865811 14869988
0.031474549 1.2580909 -0.17809309 14738146
0.050260261 1.2565001 -0.17670514 14737889
0.062350482 1.2590001 -0.17865811 14475744
0.089928582 1.2589999 -0.17865811 15198440
0.11185528 1.2558421 -0.17744966 14606305
0.12941532 1.2568004 -0.17671408 14738147
0.14955425 1.2527504 -0.17682703 14737890
0.17038481 1.2528332 -0.17706041 14738147
0.19026068 1.2539999 -0.17517851 14606302
0.20972669 1.2538962 -0.17438841 14277080
0.22983541 1.2497953 -0.1758762 14211544
0.24933898 1.2508161 -0.17535198 13751250
0.27071306 1.2508779 -0.17452474 13882321
0.28991252 1.2494917 -0.17269444 14014163
-0.28979927 1.2483933 -0.18880995 14672096
-0.27026722 1.2468673 -0.18934768 14803424
-0.24943994 1.2480618 -0.18871066 14935012
-0.23005293 1.2476182 -0.18834291 14935012
-0.20989875 1.2481384 -0.18795671 14474974
-0.18949126 1.2477173 -0.18713716 14935268
-0.17007618 1.2485648 -0.18705088 15001062
-0.14970411 1.2475696 -0.18651788 15001062
-0.13035315 1.2489675 -0.18707955 14935012
-0.11034879 1.247727 -0.18660164 14935269
-0.090136155 1.250388 -0.18543385 14803682
-0.069243185 1.2479075 -0.18595606 14672096
-0.050186992 1.2475405 -0.18565971 14409181
-0.029919172 1.2457392 -0.1848108 14409181
-0.0093730334 1.2496492 -0.18732962 14474719
0.0093371598 1.2474315 -0.18682627 14474719
0.029960843 1.2464316 -0.18573773 14606560
0.049686071 1.2463676 -0.1853286 14672353
0.069062315 1.2487777 -0.18485335 14804196
0.089899652 1.2466173 -0.1846142 15001061
0.10944819 1.2461282 -0.18436635 14803426
0.13062507 1.2474723 -0.18367726 14606304
0.14889207 1.2438262 -0.18319364 14803682
0.16891494 1.2429001 -0.18264402 14672097
0.18959597 1.2437333 -0.18233193 14540254
0.21010944 1.2431175 -0.18225147 14211032
0.22961096 1.2414999 -0.18114048 14277079
0.2498558 1.2399999 -0.18068574 13750992
0.27043808 1.2399999 -0.18068574 14145492
0.13742954 1.2770001 -0.15932097 14672095
0.15932097 1.2770001 -0.15932097 14542045
0.16175334 1.2770001 -0.15932097 14343386
0.22986001 1.2770001 -0.15932097 14342617
0.25904858 1.2770001 -0.15932097 14080216
0.26877812 1.2770001 -0.15932097 14013907
0.29104438 1.2748574 -0.15818489 14474716
-0.28969407 1.2711473 -0.17638561 14803683
-0.26947013 1.272619 -0.17498319 14737890
-0.25022033 1.270216 -0.17425872 14803683
-0.23012312 1.2696173 -0.17454277 14935268
-0.21057031 1.2708783 -0.17531282 14408924
-0.18925871 1.2705296 -0.17409036 14738145
-0.17108496 1.2688668 -0.17397425 14869475
-0.14971566 1.2698004 -0.1742103 14935268
-0.13026182 1.269592 -0.17372859 14869731
-0.10974838 1.2704819 -0.17359382 14935269
-0.089870177 1.2683965 -0.17363849 14869732
-0.071109928 1.2688252 -0.17133917 14672097
-0.050174452 1.2698894 -0.17250192 14474975
-0.029338574 1.2680837 -0.17223363 14606561
-0.010178668 1.269467 -0.17411143 14803939
0.009144254 1.2703491 -0.17338908 14738147
0.030177824 1.2703713 -0.17376484 14606303
0.050719284 1.2700448 -0.16935594 14540509
0.070087336 1.2700173 -0.17218426 14737889
0.089682087 1.2698252 -0.17063111 14935526
0.10940683 1.2709591 -0.17011584 14869732
0.13074337 1.2689803 -0.16757965 14474718
0.15094732 1.2683804 -0.16784558 14540766
0.16986682 1.2697364 -0.16743641 14474717
0.18955627 1.2697752 -0.16542146 14342873
0.20959507 1.2694547 -0.16459712 14408924
0.22956365 1.2679577 -0.16619739 14342874
0.25089648 1.2686003 -0.16615425 13882579
0.26950553 1.2680544 -0.16504769 14013909
0.28939325 1.2674814 -0.16322313 14408924
-0.29309618 1.263 -0.18216604 14869475
-0.26894286 1.2652726 -0.18261439 14606304
-0.2562086 1.263 -0.18163145 14869476
-0.22974573 1.263 -0.18163145 15066342
-0.21290572 1.263 -0.18163145 14475487
-0.10946001 1.2629999 -0.18163145 14935526
-0.0060142861 1.263 -0.18163145 14935782
-0.28388572 1.296 -0.15922287 14738403
-0.27277717 1.296 -0.15922287 14671839
-0.24690573 1.2951666 -0.15809192 14277081
-0.23031774 1.296 -0.15922287 14671584
-0.20736001 1.296 -0.15922286 14079703
-0.18983315 1.296 -0.15922287 14540768
-0.16793069 1.2954443 -0.15860602 14672354
-0.15305144 1.296 -0.15922286 14803940
-0.12811886 1.2959999 -0.15848228 14935270
-0.11189688 1.2937274 -0.15827037 15001319
-0.090102859 1.2960001 -0.15922286 14803427
-0.068591021 1.2960001 -0.15922286 14803682
-0.049117558 1.2938573 -0.15790164 14474718
-0.028918505 1.293381 -0.15666899 14474718
-0.010168871 1.2944374 -0.15764292 14672352
0.010367119 1.2945293 -0.15759008 14672352
0.029558355 1.2932729 -0.15664539 14277594
0.047757305 1.2932775 -0.15737835 14343389
0.07161016 1.2926668 -0.15799047 14080475
0.090194046 1.2936316 -0.15711343 14409182
0.11136301 1.2918277 -0.15539637 14211544
0.13059789 1.2900252 -0.15479399 14540767
0.15014458 1.2904346 -0.15446471 14474974
0.17038412 1.2895533 -0.15576859 14474716
0.19017586 1.2883255 -0.15581608 14342873
0.21065326 1.2891839 -0.15431061 14408922
0.23001659 1.2899998 -0.15378208 14277337
0.25014168 1.2905809 -0.15219688 13948372
0.2702232 1.2886869 -0.15234165 14014165
0.28965083 1.2882801 -0.15075061 14474717
-0.29066178 1.287522 -0.16648325 14803683
-0.27117378 1.2866412 -0.16528781 14803426
-0.24964762 1.286355 -0.16427356 14474717
-0.22958532 1.2868923 -0.16478515 14737889
-0.2093922 1.2872199 -0.1655457 14211801
-0.19106416 1.2871286 -0.1654747 14672097
-0.16943647 1.2873144 -0.16473062 14738147
-0.15022501 1.2866573 -0.16464658 14803940
-0.12955828 1.2863438 -0.16422896 14935526
-0.11073867 1.2858571 -0.16356833 15132392
-0.090711482 1.2888967 -0.16409694 14803940
-0.069403335 1.2875001 -0.16356565 14672098
-0.04961 1.2851003 -0.16375341 14672354
-0.029984627 1.2851429 -0.16347921 14540768
-0.0089390492 1.2868237 -0.16472057 14672353
0.009960209 1.2870935 -0.16440329 14738147
0.028990751 1.2861794 -0.1652955 14540766
0.048243288 1.2858502 -0.16250402 14014424
0.071378745 1.2861365 -0.16246139 14342874
0.090674773 1.2866251 -0.16174632 14737887
0.11094141 1.28575 -0.1623695 14343133
0.12463755 1.2848572 -0.16169797 14540511
0.14557667 1.2845001 -0.16147764 14803424
0.24604636 1.2853334 -0.16117461 13947856
-0.028826669 1.3160001 -0.13912001 14277852
0.13285336 1.3160001 -0.13912001 14211544
0.15280907 1.3151667 -0.1390319 14343127
0.17188926 1.3155 -0.13856581 14606814
0.18880053 1.314 -0.13757171 14342875
0.21181335 1.3160001 -0.13876191 14013905
0.23061335 1.3160001 -0.13912 14079700
0.25007248 1.3155 -0.13856581 14014420
0.27113783 1.3160001 -0.13884148 13948627
0.29298866 1.3143333 -0.13727334 14408924
-0.29077527 1.3081744 -0.15338664 14737890
-0.26953289 1.3072711 -0.15109187 14540510
-0.25141218 1.3091394 -0.15206392 14342874
-0.22950929 1.3091249 -0.15302446 14672096
-0.20945044 1.3074657 -0.15065162 14145753
-0.18993305 1.3065742 -0.15095647 14474975
-0.17039254 1.3074706 -0.15089548 14606562
-0.14957266 1.3067408 -0.1523194 14738146
-0.12987445 1.3073465 -0.15035015 14803939
-0.10880084 1.3077004 -0.15062918 14869732
-0.089694798 1.3074656 -0.15099411 14672354
-0.069917381 1.3067378 -0.15007491 14540511
-0.049808398 1.3088127 -0.15018432 14474975
-0.029961886 1.3063004 -0.14748538 14474975
-0.011035261 1.3069783 -0.14935748 14540766
0.0097415168 1.3079228 -0.15058133 14343387
0.030511616 1.3089349 -0.14795414 14146009
0.050479688 1.3090912 -0.14829974 14343645
0.069402099 1.3078033 -0.14905706 14343132
0.089727029 1.3088303 -0.14850676 14474974
0.1091938 1.309489 -0.14671201 14014423
0.12912184 1.3053242 -0.14503831 14343131
0.14967875 1.3034244 -0.14418046 14474974
0.17008315 1.3054996 -0.14546214 14672096
0.18979837 1.3042498 -0.14532408 14343131
0.20899591 1.3064842 -0.14420743 14343130
0.22940642 1.3041482 -0.14338242 14145752
0.24955034 1.3036317 -0.14173077 14014166
0.27080521 1.3043334 -0.14285196 14014164
0.2901946 1.3036315 -0.14212255 14343132
-0.28924137 1.3330591 -0.13688786 14672098
-0.269301 1.3338128 -0.13687198 14672095
-0.2503067 1.3341252 -0.13722251 14672352
-0.22890577 1.3325909 -0.1357926 14738147
-0.21150616 1.3322501 -0.13613862 14277596
-0.19045447 1.3331876 -0.13712518 14277597
-0.16981633 1.3324814 -0.13521649 14540768
-0.14990686 1.333917 -0.1359293 14343388
-0.13037647 1.3336471 -0.13679922 14343389
-0.11030996 1.334182 -0.13780676 14408923
-0.087204985 1.3329233 -0.13660909 14343388
-0.071104415 1.3321905 -0.13611466 14408924
-0.050782152 1.3344785 -0.13609748 14211802
-0.0296153 1.3286666 -0.13631405 14211802
-0.011560461 1.3306773 -0.13534814 14145751
0.010151467 1.3324584 -0.13578105 13751507
0.031326208 1.3314875 -0.13387942 13882838
0.051089905 1.3315359 -0.13495769 14211801
0.071125992 1.3301252 -0.13439165 14277596
0.089597471 1.332094 -0.13478348 14343388
0.1098678 1.3301111 -0.13401166 14080216
0.12976426 1.3281589 -0.13326082 13816787
0.14995654 1.3291109 -0.13272706 14211802
0.17018025 1.3292655 -0.13110103 14343387
0.19000641 1.3289998 -0.12847865 14146006
0.20945257 1.3283583 -0.13105048 14211544
0.23012704 1.3282114 -0.13080865 14014164
0.24974947 1.3288065 -0.12953 13948371
0.2700786 1.3288999 -0.13084733 13882321
0.28917709 1.3276666 -0.12918922 14211802
-0.28936028 1.3224813 -0.14316045 14606305
-0.26985976 1.3236667 -0.1411047 14540510
-0.24897328 1.3237585 -0.14332601 14540510
-0.22982065 1.3225384 -0.14271453 14540768
-0.21155612 1.324077 -0.14113516 14408924
-0.18968235 1.3236668 -0.1411047 14343387
-0.16997911 1.3231052 -0.14172518 14606561
-0.1499088 1.3227388 -0.1422392 14540767
-0.12995566 1.3231876 -0.14145245 14540768
-0.11150086 1.3244998 -0.14190573 14672609
-0.09027195 1.325 -0.14141338 14606304
-0.069812618 1.3247501 -0.14088373 14474461
-0.050723229 1.3240556 -0.14164907 14474974
-0.039074764 1.3235002 -0.14117095 14541284
-0.0051299054 1.3246669 -0.14305753 14080215
0.010090754 1.3249583 -0.14258598 14080472
0.025086667 1.3243335 -0.14139991 13948884
0.050514288 1.3260001 -0.14017715 14343132
0.064405717 1.3260001 -0.14017715 14342875
0.094608173 1.3245716 -0.14074503 14540255
0.11481168 1.3247502 -0.14067404 13883604
-0.090562545 1.3520001 -0.11974857 14211546
-0.030902859 1.3520001 -0.11974858 14014680
-0.01673905 1.3520001 -0.11974857 14014679
0.0064380956 1.3520001 -0.11974858 14014934
0.034765713 1.3520001 -0.11974858 14080729
0.051911797 1.3547693 -0.11860104 14014678
0.069167241 1.3549998 -0.11794611 14014422
0.08897078 1.3539232 -0.11892403 13882837
0.11122086 1.3517001 -0.11920468 14080215
0.12957519 1.3541999 -0.11856388 13685967
0.15110046 1.3533847 -0.11659209 14080471
0.16896486 1.3525833 -0.11700185 14211801
0.19045967 1.35088 -0.11686202 14014422
0.21044159 1.3517668 -0.11602891 13882838
0.23014237 1.3518237 -0.11548219 13816786
0.24999154 1.3507276 -0.11502372 13751251
0.27054781 1.3525715 -0.11537433 13685200
0.28954363 1.3518467 -0.11437624 13751508
-0.28927186 1.3479149 -0.12728985 14474974
-0.27089414 1.349058 -0.12727489 14606560
-0.25032586 1.3485 -0.12789465 14540510
-0.23094642 1.3505961 -0.1267222 14606560
-0.20880334 1.3495415 -0.12700768 14013910
-0.19018734 1.3491279 -0.12827848 14409182
-0.16988544 1.3492107 -0.12597813 14343388
-0.15020625 1.3480434 -0.12591141 14146266
-0.13004911 1.3489816 -0.12721939 14343388
-0.11018612 1.3495171 -0.12820143 14277597
-0.090569131 1.3478332 -0.12782486 14277339
-0.069442734 1.3481873 -0.12645616 14212061
-0.049992673 1.349262 -0.12627935 14080217
-0.031135812 1.3452499 -0.12689346 14014680
-0.0091599543 1.3471218 -0.12562418 13948629
0.010360224 1.3489575 -0.12602295 13685714
0.029521545 1.3479656 -0.12442729 13883094
0.049848456 1.3463748 -0.12645426 14014680
0.068464942 1.3451482 -0.12483235 14145754
0.089615837 1.3442057 -0.12628217 14145753
0.10973604 1.3441998 -0.12437994 14277082
0.13038845 1.3439564 -0.12404156 13817043
0.14973214 1.3437498 -0.12387796 14277594
0.1690205 1.3444998 -0.12274076 14277338
0.1904362 1.342 -0.12141906 14014677
0.2106301 1.342 -0.1219303 14014166
0.22820635 1.3436667 -0.12263494 13882835
0.25025105 1.342 -0.12141906 13816787
0.26944572 1.342 -0.12234859 13751249
0.28774524 1.3428334 -0.12149446 13948630
0.10900667 1.3790001 -0.098500006 13158857
0.13593 1.3790001 -0.097843342 13159622
0.14792563 1.3785833 -0.097594686 12962248
0.17109151 1.3789998 -0.09778364 13290955
0.1906759 1.3778462 -0.097205289 13487563
0.20736 1.378 -0.097640589 13224905
0.23172309 1.3757858 -0.09714742 13027271
0.25007048 1.3747145 -0.09688396 13224905
0.26821551 1.3762727 -0.097588845 13488336
0.29192656 1.3754289 -0.097120561 13553617
-0.2889103 1.3719431 -0.11373612 14211803
-0.26983523 1.3701316 -0.11344288 14211546
-0.24948683 1.3694391 -0.11307107 14277338
-0.23007174 1.371395 -0.11361753 14409181
-0.20973077 1.3705949 -0.11361922 13948887
-0.18987559 1.3694149 -0.11306978 14211803
-0.16984944 1.3711221 -0.1130859 14080472
-0.15032978 1.3713686 -0.11361399 14014680
-0.12983499 1.3717099 -0.11490823 14146266
-0.11005595 1.3736159 -0.11393498 14080731
-0.088375159 1.3717355 -0.11325752 13948629
-0.071349002 1.3725388 -0.11371388 14014680
-0.049212862 1.3710909 -0.11281927 13883093
-0.029684315 1.3702755 -0.11254096 13883095
-0.011689314 1.3726671 -0.11408794 13817301
0.0114646 1.3725715 -0.11431375 13948886
0.030034838 1.3710608 -0.11382557 13948886
0.049127821 1.3706136 -0.11099748 13883349
0.070687443 1.3710454 -0.10901392 13685713
0.090223499 1.3707926 -0.10912277 13553869
0.10977761 1.3706 -0.10906179 13488077
0.12973894 1.3696729 -0.10855167 13356491
0.14883074 1.369596 -0.10686266 13488335
0.17088334 1.3706001 -0.10687647 13685199
0.18988387 1.3691777 -0.10699973 13685199
0.20966564 1.3699999 -0.10580622 13619663
0.22972895 1.3687029 -0.10515371 13487820
0.2493179 1.3668858 -0.10521417 13488079
0.26946399 1.3672432 -0.10504291 13422029
0.29035765 1.3667668 -0.10404177 13684946
-0.29726383 1.363 -0.12072287 14211803
-0.26221526 1.363 -0.12072287 14408924
-0.25247955 1.363 -0.12072287 14409180
-0.2245705 1.363 -0.12072287 14738400
-0.21678191 1.363 -0.12072287 14868960
-0.19038732 1.363 -0.12072287 14146012
-0.17264667 1.363 -0.12072287 14211802
-0.1414924 1.363 -0.12072287 14080730
-0.064904764 1.363 -0.12072287 14277594
-0.058414288 1.363 -0.12072287 14080473
-0.29004467 1.3913333 -0.097317249 14211803
-0.27192819 1.3942001 -0.099053904 14080218
-0.24985695 1.3946667 -0.099323601 14211804
-0.22929968 1.3941538 -0.098355182 14343388
-0.21043988 1.3944 -0.098181836 13751247
-0.19396667 1.395 -0.099642865 14013649
-0.16721736 1.3946667 -0.099028155 13882837
-0.15009539 1.3947144 -0.098292924 13750995
-0.13022691 1.3952501 -0.098331183 13685717
-0.1100166 1.3917142 -0.098081097 13619666
-0.090187982 1.392625 -0.098144412 13422800
-0.0705835 1.3940001 -0.098463498 13619665
-0.051374655 1.3941537 -0.098559722 13685715
-0.030113967 1.395 -0.098534919 13488336
-0.0105327 1.3947999 -0.098387681 13422541
0.01138366 1.3941052 -0.097620845 13422798
0.030534562 1.3938571 -0.09823171 13356749
0.051454835 1.3928422 -0.097530626 13159109
0.071048126 1.3921765 -0.097409815 12961729
0.090078987 1.3909286 -0.095937334 12764609
0.10968275 1.3914229 -0.095300868 13093060
0.12881681 1.3913572 -0.094925918 13158854
0.15159716 1.3919283 -0.091555059 13159369
0.16892466 1.3917096 -0.091618113 13357004
0.19082537 1.3917584 -0.091269083 13356234
0.2114467 1.3924721 -0.090684235 13093063
0.22986028 1.3916485 -0.090223528 13027270
0.24883047 1.3912331 -0.089559555 13093064
0.2715005 1.3922353 -0.091091789 13422286
0.28972372 1.3909285 -0.089311562 13422287
-0.2906141 1.3856523 -0.1048261 14343388
-0.26999196 1.3876085 -0.10428302 14211546
-0.25055569 1.386579 -0.10404287 14211546
-0.23006803 1.3873999 -0.10459332 14343390
-0.21029568 1.3863636 -0.10454502 13882835
-0.19015339 1.3879524 -0.10404531 14080215
-0.17026751 1.3890998 -0.10411259 13883094
-0.14916469 1.3870834 -0.10479841 13817301
-0.12996079 1.3876998 -0.1054602 14014680
-0.10929763 1.385682 -0.10449458 13948630
-0.092255056 1.3862 -0.10524246 13817301
-0.0686775 1.3868182 -0.10481905 13751508
-0.051128812 1.3872502 -0.10397501 13751508
-0.031199703 1.3865627 -0.10349495 13619922
-0.0089689121 1.3891426 -0.10555149 13685716
0.0093383249 1.3883448 -0.1055483 13685714
0.030407665 1.3880434 -0.10500643 13619920
0.049579594 1.3857144 -0.10275035 13553869
0.068590485 1.3850001 -0.10156667 13224903
0.092333339 1.3850001 -0.10156667 13027783
-0.26082572 1.419 -0.079734288 13092809
-0.20271429 1.419 -0.079734288 12434353
-0.19595715 1.419 -0.079734288 13422026
-0.022974288 1.419 -0.079058573 12896707
-0.016217144 1.419 -0.078382865 12830917
0.054878101 1.4170002 -0.078720957 12698562
0.069812067 1.4156669 -0.077746972 12764355
0.090016365 1.4184544 -0.078720778 12961991
0.11005143 1.4156252 -0.078024283 13028042
0.13155407 1.41675 -0.076005004 13159370
0.14953196 1.4152948 -0.074603707 13027527
0.17034996 1.4149408 -0.074743196 13159112
0.19016469 1.4161202 -0.076006964 13027527
0.20956455 1.4143552 -0.075379081 13159114
0.22980155 1.4144002 -0.075514294 13093576
0.25168437 1.4154449 -0.075833552 13027527
0.27030587 1.4151083 -0.073897198 13093064
0.28973192 1.4135007 -0.074178234 13159114
-0.28980455 1.4109744 -0.089123346 14014680
-0.26953223 1.4115963 -0.090052597 13948630
-0.25081962 1.4105961 -0.090162829 14014423
-0.23012911 1.4109111 -0.089354858 13948631
-0.20981272 1.4128613 -0.088950604 13422543
-0.19009039 1.4109617 -0.090321146 13685712
-0.1706358 1.4108058 -0.092098877 13817301
-0.14930493 1.411629 -0.090371169 13750995
-0.12974775 1.4103144 -0.089898102 13554130
-0.10999271 1.4104885 -0.089361809 13422543
-0.090480998 1.4127009 -0.089120992 13291215
-0.069913402 1.4116429 -0.090446413 13356750
-0.049176749 1.4097676 -0.089561127 13554128
-0.029715102 1.4105408 -0.089024469 13356748
-0.0094105229 1.4123337 -0.089145698 13225165
0.0087918648 1.410886 -0.089242488 13159625
0.030053485 1.4111136 -0.088985823 13027782
