# .PCD v0.7 - Point Cloud Data file format
VERSION 0.7
FIELDS x y z rgba
SIZE 4 4 4 4
TYPE F F F U
COUNT 1 1 1 1
WIDTH 1134
HEIGHT 1
VIEWPOINT 0 0 0 1 0 0 0
POINTS 1134
DATA ascii
-0.52479064 0.90447325 0.16348755 13290955
-0.50735635 0.91211122 0.16440424 13225419
-0.49020436 0.92221653 0.16479886 13225161
-0.47267783 0.93222469 0.16609663 13356491
-0.45511812 0.94197333 0.16574499 13619663
-0.43823704 0.95179802 0.16566259 13619664
-0.42083901 0.96196783 0.16783017 13487821
-0.40382656 0.97244799 0.16761258 13290699
-0.38650435 0.98361707 0.16734022 13290698
-0.36966914 0.99330336 0.16884133 13553613
-0.35220397 1.0031527 0.16859239 13553868
-0.33486879 1.0130497 0.16936788 13553613
-0.31821847 1.0251009 0.16941196 13356489
-0.29988474 1.0331702 0.16966754 13027524
-0.28321066 1.0432407 0.16949919 13027522
-0.78449798 0.74947327 0.15298116 12369079
-0.76624262 0.75873482 0.15242675 12764094
-0.74827206 0.76745111 0.15277827 12698301
-0.72968775 0.77885723 0.15273768 12764608
-0.69336611 0.80015117 0.15359539 12632767
-0.67968512 0.81198353 0.15607014 12500924
-0.66183543 0.82037425 0.15391147 12172471
-0.64199448 0.8301484 0.15314069 12567232
-0.62447768 0.84172952 0.15285113 12830404
-0.61100262 0.84846473 0.15298647 12699074
-0.59312487 0.857871 0.15325114 12961991
-0.57344198 0.87042832 0.15406466 12698306
-0.55716383 0.87921453 0.15345642 12567746
-0.54358447 0.88814926 0.15423518 12698305
-0.52326643 0.89954805 0.153326 13159372
-0.49342364 0.91704524 0.15382028 13159627
-0.77274793 0.77574903 0.19006404 12632506
-0.70583773 0.81546128 0.19044596 12632766
-0.68334931 0.82880855 0.19057429 12961731
-0.61616153 0.8686856 0.19095775 13028041
-0.59703881 0.87867612 0.19138315 13093578
-0.58689356 0.88519931 0.19160849 13290955
-0.56404841 0.89732575 0.19205374 13290956
-0.55227023 0.90566319 0.19198558 13357006
-0.53213179 0.91671103 0.19179705 13291213
-0.51697433 0.92542839 0.1923036 13356749
-0.49854308 0.93478572 0.19189027 13093576
-0.48088741 0.94556272 0.19332013 13554126
-0.46268025 0.95455641 0.19259417 13488077
-0.44612366 0.96491903 0.19351181 13553612
-0.42844394 0.97495836 0.19384775 13619663
-0.41359788 0.9842211 0.19447881 13553615
-0.39309359 0.99474853 0.19193986 13553870
-0.37635466 1.0052688 0.19344434 13685200
-0.35902917 1.0148456 0.19400138 13619149
-0.34238893 1.0251364 0.19303188 13553870
-0.32607037 1.0377584 0.19382235 13487563
-0.30629963 1.0453252 0.19374555 12961474
-0.28941557 1.054729 0.19370905 13224903
-0.79671639 0.75295389 0.16850296 12633274
-0.78986359 0.76104707 0.17779398 12698301
-0.77254206 0.77220541 0.17797691 12566713
-0.75619328 0.78199553 0.17932731 12566972
-0.73920065 0.79213405 0.17819804 12632764
-0.72139388 0.80172658 0.17961815 12764607
-0.70333219 0.81092 0.18097121 12566714
-0.68624002 0.82179946 0.1777907 12764609
-0.66936368 0.83232987 0.17893252 12698560
-0.65201676 0.8427766 0.17738113 12501182
-0.63553786 0.85339105 0.1781038 12698817
-0.61809272 0.86262071 0.1809395 12896196
-0.60060203 0.87319791 0.18142587 12961991
-0.5824399 0.88233966 0.18123177 13159114
-0.56516182 0.89148343 0.18085894 13159371
-0.5476281 0.90320718 0.18127283 13159627
-0.53145796 0.91101187 0.18054402 13225163
-0.51329005 0.92231399 0.18228468 13422799
-0.49588361 0.93085694 0.18170702 13290699
-0.47903821 0.94193363 0.1833739 13356749
-0.46083614 0.95030767 0.18178445 13554128
-0.44372043 0.96160215 0.18200105 13488079
-0.42781758 0.97062486 0.18308929 13751507
-0.4095197 0.98287666 0.18438151 13422029
-0.39270529 0.99129528 0.18258831 13488077
-0.37444821 1.0017109 0.18391567 13619919
-0.35716802 1.0126679 0.18339807 13553611
-0.34007376 1.021127 0.18316194 13422284
-0.3234185 1.0337696 0.18466836 13224647
-0.30631626 1.042653 0.18429619 12961987
-0.28869796 1.0528643 0.18459418 13225160
-0.27791038 1.0542929 0.18137684 12896187
-0.45297241 0.97628987 0.22012803 13553872
-0.41553175 0.99851149 0.22034171 13620947
-0.37638927 1.0217432 0.22056517 13685459
-0.36890501 1.025932 0.22098932 13619406
-0.31512272 1.0581059 0.22091481 13356739
-0.28934854 1.0728335 0.22192022 13554380
-0.79786599 0.77347147 0.20100367 12895935
-0.77846414 0.78210628 0.20073649 12698302
-0.76298261 0.79393017 0.20121235 12830145
-0.7452327 0.80348188 0.20176297 12764351
-0.72825277 0.81300914 0.20129287 12961475
-0.71061182 0.8232407 0.20096278 12764096
-0.69405645 0.83377874 0.20059958 13027525
-0.67713946 0.8446759 0.20122394 12961734
-0.66080368 0.85678846 0.20236221 12830403
-0.64136475 0.8641603 0.20113334 12830403
-0.62510133 0.87424558 0.20289549 13093576
-0.60702103 0.88394248 0.20349386 13159370
-0.58963317 0.89432567 0.20471156 13356750
-0.5729863 0.90439326 0.20532909 13488335
-0.55511975 0.91450596 0.20439303 13553873
-0.53799796 0.92389405 0.20319909 13488335
-0.52028084 0.93368274 0.20471668 13290955
-0.50256979 0.94312018 0.20632067 13290956
-0.48660791 0.95424145 0.20836082 13422541
-0.46797982 0.96246123 0.20814586 13487822
-0.45141444 0.97433078 0.20918715 13488077
-0.43390471 0.98390812 0.2098687 13356235
-0.41504684 0.99246722 0.20828596 13093578
-0.39905077 1.0021393 0.2059471 13553868
-0.38212329 1.0152959 0.20811331 13619407
-0.3655715 1.0249677 0.21028271 13553613
-0.34767121 1.034292 0.20946571 13487819
-0.32991722 1.0440935 0.2080346 13487820
-0.31412241 1.0544676 0.20932916 13356232
-0.29633579 1.0658736 0.21026722 13027268
-0.79503947 0.76841521 0.19014254 12764350
-0.77847636 0.77623892 0.19023061 12829627
-0.75937176 0.78774887 0.19008216 12764093
-0.74135566 0.7998184 0.18962604 12698559
-0.7259869 0.80848742 0.1900925 12961474
-0.7069006 0.81899172 0.19109547 12632760
-0.69239295 0.8280021 0.19057652 12896450
-0.67274708 0.84118783 0.19199687 12763843
-0.65788275 0.85202897 0.19153601 12829891
-0.64192396 0.85933459 0.19019482 12896196
-0.62256449 0.86866641 0.1912843 13027785
-0.60931963 0.87680709 0.19093859 13290444
-0.5767678 0.89570761 0.19175625 13225417
-0.80571473 0.78583366 0.22801414 13356229
-0.78812975 0.79597872 0.22768822 13158856
-0.76995164 0.80744612 0.22763553 12961474
-0.75348842 0.81721735 0.22772953 12632765
-0.7370252 0.82698846 0.22782347 12764096
-0.72185189 0.8358283 0.22815982 12829888
-0.70409876 0.84653085 0.2280114 13290699
-0.67983723 0.86093044 0.22814986 13223881
-0.66250753 0.87121588 0.2282488 13027271
-0.65340942 0.87661576 0.22830072 13027266
-0.63127244 0.88770342 0.22848764 13422030
-0.61703604 0.89791393 0.22894529 13619151
-0.59614289 0.90821701 0.22848764 13751252
-0.57893622 0.91795158 0.2276049 13948118
-0.56632686 0.92636192 0.22868845 13817046
-0.54659927 0.93903095 0.22873178 13619921
-0.52683479 0.94910777 0.22956371 13488078
-0.51037437 0.9570443 0.22968629 13488079
-0.4924852 0.96598411 0.22931528 13619921
-0.4753224 0.97595167 0.23061031 13553870
-0.45796591 0.98333108 0.22967935 13554127
-0.4395763 0.9934476 0.22908762 13487820
-0.42348254 1.0047698 0.23035154 13290183
-0.40615243 1.0160394 0.22960842 13619148
-0.38920885 1.0260864 0.23155022 13487819
-0.37185666 1.0342256 0.2299093 13553613
-0.35456046 1.0468389 0.23113379 13487819
-0.3379657 1.0565836 0.23101431 13487820
-0.31982836 1.0656607 0.2319344 13224645
-0.30251172 1.0747646 0.2313287 13290697
-0.80191553 0.78123581 0.21779445 13093315
-0.78469688 0.79065371 0.21801126 12961474
-0.76973212 0.80357248 0.21892777 12961730
-0.75024265 0.81154609 0.21865994 12830143
-0.73294371 0.82229829 0.21844691 12830144
-0.71644497 0.83362287 0.2185424 13027269
-0.69847322 0.84253627 0.21701056 13093317
-0.6825968 0.85391045 0.2182143 13224650
-0.66518199 0.86458659 0.21772674 12830146
-0.64838296 0.87383556 0.21891597 13027269
-0.62970644 0.88307941 0.21976107 13290699
-0.61302757 0.89270562 0.22052082 13422287
-0.59454566 0.90147448 0.22102475 13751507
-0.57687354 0.91180634 0.22153512 13883095
-0.56065285 0.92357445 0.22094709 13751507
-0.54413903 0.9336406 0.21973792 13685457
-0.52676427 0.94256324 0.22073171 13356750
-0.50948411 0.95135444 0.22146955 13356493
-0.48874438 0.95970595 0.22032833 13488079
-0.47158438 0.97041106 0.22084707 13487822
-0.45653731 0.97805482 0.22032034 13488079
-0.43721265 0.98923862 0.22086105 13290442
-0.41928762 1.0008249 0.22074762 13422027
-0.40338582 1.0120345 0.21930346 13356490
-0.38857782 1.0205119 0.21927071 13487564
-0.3621152 1.0338103 0.22128969 13685455
-0.35036787 1.0408863 0.22120023 13553869
-0.3349717 1.0503012 0.22087073 13422028
-0.31754625 1.0606053 0.22102761 13224895
-0.30144697 1.0709205 0.22111085 12830658
-0.49622458 0.97843951 0.25673705 13883352
-0.42912689 1.018263 0.25712001 13750996
-0.36027119 1.0577514 0.25773847 13817042
-0.32095271 1.082072 0.25833109 13685458
-0.30744502 1.0867763 0.25782672 13487818
-0.80860209 0.79202491 0.23838896 13290439
-0.79151136 0.80210179 0.23799673 13158596
-0.77343583 0.81225824 0.23898891 13158854
-0.75737196 0.82196248 0.23849845 12961730
-0.73974741 0.83208585 0.23809236 12764094
-0.72275031 0.84293818 0.24006769 12829630
-0.70546854 0.85325283 0.23886755 12764094
-0.6884619 0.86390805 0.23852375 13356492
-0.67160654 0.8745054 0.2388863 12961476
-0.65261865 0.88229549 0.23817852 13159112
-0.63573754 0.89362937 0.23995861 13488078
-0.61867189 0.90274543 0.24034607 13553873
-0.60161537 0.9129107 0.2416583 13817045
-0.58445787 0.92272854 0.24060068 13751507
-0.56829095 0.93478256 0.2408714 13619922
-0.55035168 0.9447853 0.24019319 13619921
-0.53256577 0.9535985 0.24145532 13422285
-0.5151574 0.9642691 0.24347502 13422285
-0.49824661 0.97402543 0.24548292 13751251
-0.48082513 0.98383248 0.24619561 13422285
-0.4629043 0.99410594 0.24627867 13553614
-0.44594511 1.0028481 0.24570137 13751251
-0.42875615 1.0136783 0.24735734 13487821
-0.41187355 1.0249515 0.24522272 13750994
-0.39408514 1.0340253 0.24728587 13553613
-0.37580651 1.0438625 0.2466256 13619406
-0.35953248 1.0527945 0.24726954 13685200
-0.3416079 1.0635951 0.24685815 13685200
-0.32507157 1.0740907 0.24866325 13685198
-0.30735677 1.0837265 0.24803883 13487562
-0.77387273 0.80870414 0.22827107 13027781
-0.73694265 0.83062267 0.22848183 12896195
-0.71565366 0.84325814 0.22860336 12633539
-0.70350844 0.85119957 0.22794691 13027524
-0.68737644 0.86015731 0.22858948 13225161
-0.67148858 0.86981982 0.22832957 12764610
-0.6497879 0.88235056 0.22897929 13355975
-0.61224961 0.90463006 0.22919351 13751254
-0.60877383 0.90669298 0.22921336 13685458
-0.59139502 0.91700757 0.22931254 14013399
-0.56567824 0.93362767 0.22914642 13817044
-0.55489945 0.93866837 0.22952086 13423312
-0.81732345 0.80581176 0.26632884 13355976
-0.79972291 0.81720066 0.26693699 12961476
-0.78325635 0.82450247 0.26499441 13290441
-0.76342952 0.83626652 0.26594973 13422026
-0.74822241 0.84541065 0.265569 13224645
-0.73319203 0.85674632 0.26651597 13289925
-0.71322566 0.86644208 0.26471379 13290441
-0.69491208 0.87726045 0.26576138 14014165
-0.68019515 0.8884328 0.26625013 13619148
-0.66003835 0.89716864 0.26640612 13619664
-0.64407951 0.90653819 0.2661809 13751507
-0.6270324 0.91711664 0.26612717 13882837
-0.60849875 0.92739654 0.26622596 14014166
-0.59230214 0.93559659 0.26689374 13948372
-0.57585508 0.94580901 0.26588202 13817045
-0.55493319 0.95610356 0.26574346 14014681
-0.54022676 0.96588361 0.26690367 14145753
-0.52122092 0.97474605 0.26497006 13817300
-0.50447279 0.98312008 0.2654672 13816786
-0.48667517 0.99442017 0.26715481 13948628
-0.46942273 1.0030011 0.26658228 13882579
-0.45413589 1.015702 0.2675505 13882835
-0.43459743 1.0241125 0.26716664 13750738
-0.4179014 1.0348401 0.26662338 13948117
-0.40071905 1.0441103 0.26724222 13685201
-0.38454965 1.0569277 0.26915118 13421769
-0.36664855 1.0640646 0.26878607 13750736
-0.34824714 1.0733068 0.26732033 13816528
-0.33098826 1.0845904 0.26842311 13750735
-0.31379598 1.0931202 0.2708424 13619147
-0.81477177 0.80201495 0.25535551 13224647
-0.79791623 0.81305087 0.25565815 13158855
-0.77940822 0.82106864 0.25574344 13290441
-0.76276612 0.83244425 0.25549963 13290439
-0.74550116 0.84228671 0.25501117 12895682
-0.72771126 0.85294503 0.25752929 12961474
-0.71163982 0.86397535 0.25630569 13027525
-0.6950596 0.87412965 0.25597179 13685458
-0.67806137 0.88485515 0.2566945 13159114
-0.65998751 0.89379185 0.25565308 13488079
-0.64223039 0.90197533 0.25548622 13619664
-0.62421501 0.91245121 0.25641769 13685460
-0.60715646 0.92253697 0.25768381 13948373
-0.58952093 0.93251443 0.25720558 13882837
-0.57138884 0.94177502 0.25617895 13948630
-0.55465508 0.95113885 0.25543094 13817302
-0.53775132 0.96225333 0.25663671 13882837
-0.52024812 0.96983659 0.25587028 13685714
-0.50264782 0.98053062 0.25754926 13751763
-0.48585269 0.99024349 0.25706851 13948626
-0.46635231 1.0001861 0.2569156 13554128
-0.44983163 1.0115499 0.25791568 13882579
-0.43327224 1.0193455 0.25781876 13553872
-0.41656992 1.0315259 0.25651762 13948373
-0.39802712 1.0423584 0.25761858 13684688
-0.38318735 1.0530267 0.25951213 13422027
-0.36510247 1.0598052 0.2582078 13882835
-0.34606665 1.0715775 0.25760213 13751246
-0.33109072 1.0802289 0.25804472 13750991
-0.43759608 1.0374426 0.29250535 14343131
-0.42622256 1.0451243 0.29278317 14211547
-0.40528992 1.0579131 0.29289129 14145496
-0.39241481 1.0653414 0.29374728 13882321
-0.36919856 1.0784619 0.29384118 13948115
-0.35552344 1.0860924 0.29373536 14013909
-0.33896348 1.0961123 0.29368144 14013907
-0.32020721 1.1078336 0.29365784 13750221
-0.82162923 0.81299812 0.2778241 13553100
-0.80418146 0.82340223 0.27879637 13290183
-0.78703839 0.833215 0.27745217 13553357
-0.76947522 0.84262145 0.27782857 13619150
-0.75174755 0.85392106 0.27908161 13093061
-0.73622149 0.86454254 0.27705985 13224648
-0.71859324 0.87490213 0.2773509 13356234
-0.70159954 0.88393164 0.27837449 14014422
-0.68342 0.89460123 0.27730727 13224649
-0.66659582 0.90483236 0.27966729 13290956
-0.64909035 0.91480178 0.27924746 13685458
-0.63209808 0.92444128 0.27957308 13685202
-0.61487043 0.93373716 0.27979288 13751253
-0.59535712 0.94327271 0.28150731 13882839
-0.58127129 0.95488214 0.27928677 14014679
-0.56242543 0.96505225 0.27984905 14211804
-0.5449068 0.97448003 0.28189802 13948888
-0.52872896 0.98449761 0.28033704 13948887
-0.51063073 0.99528533 0.28236985 14014423
-0.49270844 1.0040209 0.28368482 14080215
-0.47530442 1.0150572 0.28331575 13816786
-0.45741683 1.0237335 0.28292534 13750992
-0.44145763 1.03444 0.28416687 13816786
-0.42319962 1.0446942 0.28325602 14145752
-0.40641153 1.0540996 0.28391448 14013909
-0.38899955 1.064889 0.28455058 13684942
-0.3718529 1.0735519 0.28550616 13816787
-0.35387647 1.0841256 0.28360525 13750992
-0.33693892 1.0937127 0.28435898 13816786
-0.31871915 1.1021733 0.2857177 13619404
-0.82809085 0.82466727 0.30210742 13487565
-0.81161261 0.83573067 0.30232269 13421771
-0.79318088 0.84442186 0.30170631 13684942
-0.77548563 0.85433674 0.30218583 13750735
-0.75960124 0.86574054 0.30198929 13684942
-0.74348426 0.87721747 0.30226037 13421513
-0.72505599 0.88689601 0.30312851 13619407
-0.70968425 0.89669573 0.30278796 14014166
-0.69076049 0.90534323 0.30192885 13619407
-0.67398536 0.91678441 0.30324507 13750994
-0.65619141 0.92655164 0.30298367 13882581
-0.64025277 0.93808949 0.30405429 14211290
-0.62226385 0.94690943 0.30283332 14211545
-0.60176706 0.95428151 0.30120268 14211545
-0.58758837 0.96689224 0.30257067 14079960
-0.57058787 0.97895253 0.30398762 14343131
-0.55348378 0.98784673 0.30476731 14408925
-0.5344367 0.99498612 0.30362856 14277596
-0.5170452 1.0058773 0.30321324 14277339
-0.4991326 1.0147172 0.30366817 14277338
-0.48207447 1.0240476 0.3043133 14474461
-0.46383807 1.0347036 0.30404177 14145495
-0.44701666 1.0436119 0.30489069 13816531
-0.43063897 1.0547607 0.30540782 14079959
-0.41329151 1.0655224 0.3042776 14013907
-0.39581496 1.0754507 0.30599657 13948371
-0.37911314 1.0864024 0.30705091 13882322
-0.36102939 1.0959133 0.30861908 14211286
-0.34397018 1.1046598 0.30804041 13948371
-0.32614383 1.1155629 0.30700704 13882321
-0.82550734 0.82054037 0.29179367 13487562
-0.80890453 0.83073562 0.29244474 13290441
-0.79103875 0.84038609 0.29106596 13685200
-0.77412063 0.85146487 0.29124346 13750991
-0.75804734 0.86087716 0.29295558 13487821
-0.74000043 0.87256306 0.29153925 13224391
-0.7229231 0.88106441 0.29255283 13290441
-0.70536518 0.89271587 0.2934007 13817300
-0.68738925 0.89987004 0.29102227 13356237
-0.67035651 0.91152036 0.29298046 13554127
-0.65310514 0.92051381 0.29268149 13882579
-0.6359697 0.93186831 0.29320386 14145753
-0.618334 0.94116473 0.29335538 14080219
-0.60433102 0.94768989 0.29250318 14146010
-0.58156639 0.96400881 0.29132098 14080472
-0.56893051 0.97134954 0.29237568 14277854
-0.54923505 0.98288047 0.29431859 14277595
-0.53107232 0.99094212 0.29238117 14211803
-0.51701808 0.99919516 0.29279619 14145495
-0.49940547 1.0089499 0.29273739 14343132
-0.47968435 1.0206547 0.29284999 14145496
-0.46202767 1.0313859 0.2932449 13948884
-0.44574568 1.0407978 0.2930437 13486522
-0.4123773 1.0628674 0.29588124 14145750
-0.49298349 1.0368506 0.33121186 14343129
-0.46929431 1.0509104 0.33134705 14277337
-0.46266136 1.0548471 0.3313849 14212052
-0.44029886 1.0681196 0.33151251 14539995
-0.41690174 1.0810299 0.33311635 14211543
-0.40447229 1.0889926 0.33230501 14079445
-0.387431 1.0977139 0.33248127 14145748
-0.36659208 1.1098882 0.33213496 14079702
-0.35204148 1.1163096 0.33240259 13948372
-0.33241788 1.128383 0.33269256 13684941
-0.83286548 0.83248544 0.31631204 13816528
-0.8162632 0.84243321 0.31684023 13619149
-0.79821986 0.85276234 0.31707823 13619149
-0.78136945 0.86264026 0.31738776 14014163
-0.76374078 0.87255836 0.31723449 13948115
-0.7480014 0.88429868 0.31534269 13685199
-0.72946799 0.89315093 0.31682509 13816787
-0.71405685 0.90561938 0.31598139 14079958
-0.69588721 0.91422701 0.31658798 13816787
-0.67884928 0.92433834 0.31716561 13948375
-0.66084933 0.93367827 0.31827807 14277339
-0.64302009 0.94391078 0.31801057 14277340
-0.62591773 0.95498568 0.3175821 14343132
-0.60817802 0.96397245 0.31803328 14343132
-0.59179264 0.974895 0.31790122 14277339
-0.57594085 0.98475319 0.31852055 14211545
-0.5577721 0.99509835 0.31973469 14343389
-0.53994441 1.004136 0.3204577 14343133
-0.5234549 1.015896 0.32030207 14540767
-0.50637984 1.0254982 0.32263625 14408923
-0.48807693 1.03611 0.32314062 14540252
-0.47229651 1.0469686 0.32305366 14211801
-0.45293921 1.0553552 0.32348543 13948116
-0.43637532 1.0654458 0.32295528 13882321
-0.42011827 1.0761255 0.3221834 13684686
-0.4017024 1.0845795 0.32272452 13750736
-0.38463578 1.0933588 0.3236261 13948371
-0.36694232 1.1028345 0.32398996 14079444
-0.34715825 1.1141741 0.32325512 13882578
-0.33292365 1.1227463 0.32256031 13882321
-0.83971155 0.84387136 0.33908969 13948115
-0.82110393 0.85240901 0.33805424 13816528
-0.80565619 0.8640883 0.33992231 13750479
-0.78806055 0.87453663 0.34003395 13948370
-0.77004015 0.88325185 0.34035915 14079702
-0.75479072 0.89650583 0.34071839 14145495
-0.73812646 0.90721822 0.34110141 14277081
-0.71942103 0.91584671 0.34017241 14540512
-0.70398068 0.92669004 0.34033823 14145496
-0.6874119 0.93821508 0.34099483 14211545
-0.67015749 0.94803238 0.34066278 14474460
-0.64966303 0.95415908 0.33957505 14540254
-0.63248694 0.96538913 0.33970869 14606048
-0.61522412 0.97438103 0.34033155 14540511
-0.60034525 0.98576486 0.34010854 14408924
-0.58210939 0.9967854 0.34081358 14409181
-0.56542265 1.0085952 0.33995929 14277338
-0.54576558 1.0153134 0.33884448 14408924
-0.52816319 1.0257516 0.34139371 14408925
-0.51171905 1.0353568 0.34044853 14343131
-0.49361268 1.0449599 0.34175247 14145752
-0.47706789 1.0543306 0.34078866 14211543
-0.45911875 1.0649458 0.34195817 14079701
-0.44236881 1.0744772 0.34216955 14474460
-0.4261651 1.0860442 0.34162465 14343130
-0.40756729 1.0948037 0.34305248 14342873
-0.39108452 1.1060678 0.34475869 14013652
-0.37386712 1.1150135 0.34401208 14277081
-0.3557893 1.124949 0.34541804 14013907
-0.33824569 1.1340363 0.34539136 13750478
-0.83861697 0.83941984 0.32893723 13816529
-0.82117039 0.84859586 0.32892781 13684943
-0.80261791 0.85998726 0.32942224 13750992
-0.78576368 0.8702029 0.32919875 13882578
-0.7678712 0.88127285 0.32967991 14145237
-0.75140429 0.89172685 0.32957101 14014422
-0.7352587 0.90255797 0.33047596 14079959
-0.71791822 0.91117418 0.32890967 14343131
-0.69955266 0.92228842 0.32972819 13948375
-0.6843552 0.93279225 0.33081573 14211801
-0.66574001 0.94182724 0.33081716 14408924
-0.64830399 0.95086712 0.32986933 14408668
-0.63052648 0.96195078 0.33022514 14539741
-0.61603379 0.97045368 0.32993868 14408668
-0.59612167 0.98384774 0.33082002 14408667
-0.57888848 0.9935593 0.33105594 14145754
-0.56347418 1.0035841 0.33136296 14211803
-0.54087877 1.0142933 0.33017513 14539999
-0.5296669 1.023473 0.33166215 14737633
-0.51165795 1.0349592 0.33341488 14474715
-0.4343847 1.0774992 0.33078298 14211550
-0.84281707 0.85811353 0.36647207 14013906
-0.83301383 0.86393189 0.36652803 13947857
-0.7673322 0.90291506 0.36690289 13948372
-0.73988312 0.9192065 0.36705959 14408667
-0.72909957 0.92560667 0.3671211 14606047
-0.68694568 0.95062572 0.36736172 14080215
-0.67420143 0.95818961 0.36743444 14012878
-0.65725583 0.968247 0.36753112 14342362
-0.6457721 0.97506291 0.36759669 14408664
-0.62342072 0.98832881 0.3677243 14146011
-0.61146075 0.99542719 0.36779255 14606563
-0.57616913 1.0163734 0.36799395 14211033
-0.53479946 1.0409269 0.3682301 14211284
-0.51867825 1.0501671 0.36881655 14343129
-0.50359416 1.0589229 0.36919934 14408922
-0.48385969 1.0705093 0.36876762 13817040
-0.4669041 1.0788729 0.36831248 14343386
-0.44947827 1.0885049 0.36943951 14474715
-0.43892384 1.0978307 0.36877728 14342873
-0.41539609 1.1117947 0.36891156 14540251
-0.39536178 1.1201394 0.36790502 14276822
-0.38051564 1.1287113 0.36808103 14277339
-0.36267227 1.1370937 0.36877811 13685201
-0.34601212 1.1480227 0.36839014 13750477
-0.84542257 0.85249901 0.35615891 14079958
-0.82787299 0.86266708 0.35626075 13882320
-0.81076872 0.87289441 0.35723698 13684941
-0.79364216 0.88326973 0.35681558 14211287
-0.7756775 0.89429587 0.35707086 14277082
-0.76046574 0.90438372 0.35707968 14211544
-0.74280488 0.9154315 0.35732597 14342873
-0.72467071 0.92401892 0.35693011 14606303
-0.70771593 0.93466634 0.35655755 14474205
-0.69079131 0.94525766 0.35656565 14211290
-0.67276198 0.95433676 0.35651243 14540254
-0.65625536 0.96560508 0.35831034 14672097
-0.63999295 0.97494859 0.35723716 14540510
-0.62164652 0.98464406 0.35855922 14277339
-0.60412377 0.99610317 0.35657769 14540510
-0.58773744 1.0074869 0.35755301 14408924
-0.56963301 1.0158776 0.35603112 14277338
-0.55271757 1.0256171 0.35702729 14342875
-0.53598762 1.0349503 0.35851151 14408411
-0.51750201 1.0444051 0.35851431 14277337
-0.50059718 1.0540203 0.35908407 14343130
-0.48305008 1.0647172 0.3587594 13948627
-0.46597359 1.0729431 0.35854474 14079701
-0.44807607 1.0838519 0.35932928 14474460
-0.4321627 1.096465 0.35877728 14342874
-0.41452077 1.1063088 0.36049128 14277081
-0.39692026 1.1148027 0.36023146 14277080
-0.3786824 1.1249045 0.35957757 13948113
-0.36100602 1.1342509 0.35900566 14014163
-0.34393159 1.1441528 0.35963571 13882575
-0.85130501 0.86250907 0.37541822 14079699
-0.83403897 0.87363756 0.37685183 13553356
-0.81598687 0.88388342 0.3768166 13487563
-0.79871297 0.89273208 0.37655944 13948116
-0.78303349 0.90315849 0.37664396 14211543
-0.76701707 0.91636688 0.37675413 14079958
-0.74889773 0.92562759 0.37855971 14277082
-0.73231369 0.93630755 0.37723708 14540253
-0.71423012 0.94483042 0.37596375 14540510
-0.69825822 0.95659482 0.37756357 13948375
-0.68068296 0.96568543 0.37796906 14211803
-0.66279966 0.97539032 0.37759316 14540512
-0.64446431 0.98540789 0.37677792 14408924
-0.62774998 0.99545789 0.37694952 14277597
-0.61103195 1.0065212 0.37744945 14606561
-0.59316164 1.0167608 0.37846687 14277596
-0.57625198 1.0266333 0.37879378 14079961
-0.56043899 1.037684 0.37890142 14277338
-0.543531 1.0482085 0.3797332 14343130
-0.52407569 1.0550435 0.3790282 14409180
-0.50701541 1.0670657 0.3807973 14474459
-0.48928654 1.0760521 0.38094717 14277337
-0.47295618 1.0868331 0.38474375 14474718
-0.45519823 1.096844 0.38415611 14474459
-0.43813092 1.1064348 0.38126373 14474717
-0.42094481 1.1159987 0.37952614 14540253
-0.40387106 1.1266674 0.38185543 14342617
-0.38631183 1.1363302 0.38327837 14408923
-0.36898282 1.1470459 0.38501751 14277081
-0.35066399 1.1554967 0.38350987 14014162
-0.83236325 0.87453115 0.36932337 13619150
-0.81844658 0.88118058 0.36778945 13619148
-0.80064011 0.89013845 0.36627778 14145751
-0.78233337 0.90150815 0.36652011 14145749
-0.76421785 0.9133662 0.36809891 14145237
-0.75535685 0.91701478 0.36653623 13949144
-0.71696454 0.93980122 0.36675534 14540512
-0.69745731 0.95352638 0.36901772 14277080
-0.61163181 1.0023179 0.36735651 14540769
-0.59440446 1.0125426 0.36745486 14474974
-0.56634855 1.0291942 0.36761495 14277335
-0.86526555 0.87277943 0.40294534 14080214
-0.8382051 0.88571376 0.40218371 13882064
-0.82417572 0.89584172 0.4042258 13553613
-0.8075189 0.90458083 0.40355363 13684943
-0.7899242 0.91749573 0.40337533 14277593
-0.78124768 0.92264539 0.40342486 14344154
-0.76100236 0.93466127 0.40354037 14408926
-0.73974484 0.94727796 0.40366173 14475741
-0.717475 0.96049547 0.40378881 14606818
-0.70467514 0.96775353 0.40437242 14146008
-0.68407035 0.98032165 0.40397948 14671840
-0.67799675 0.98392648 0.40401417 14738148
-0.64916992 0.9999665 0.4047794 14803685
-0.63381672 1.0098091 0.40477684 14869477
-0.62350488 1.015726 0.40514198 15001317
-0.58511806 1.0384583 0.40543768 14935268
-0.56765997 1.0494131 0.40464389 14540767
-0.5481292 1.0596817 0.40573901 14343131
-0.53010422 1.0703844 0.40569067 14342874
-0.51638657 1.0789433 0.40571743 14211546
-0.49551219 1.0895762 0.40593803 14672609
-0.47902629 1.0960056 0.40517879 14672097
-0.46165848 1.1073072 0.40492058 14672096
-0.44702205 1.1166086 0.40520695 14869218
-0.4300395 1.1309425 0.40565628 14606044
-0.41051555 1.1383197 0.405339 14474717
-0.3924059 1.1485361 0.4051258 14671583
-0.37537023 1.1573414 0.40586135 14671840
-0.35905859 1.1681169 0.40607941 14408667
-0.85798526 0.87325948 0.39286298 13947858
-0.83973449 0.88172239 0.39315808 13750736
-0.82348871 0.89193058 0.39415181 13553099
-0.80505699 0.90223354 0.3941195 13948629
-0.78821337 0.91447699 0.39460635 14342872
-0.7721824 0.92493832 0.39374757 14145751
-0.75506645 0.93388838 0.39504284 14277338
-0.73740029 0.94516426 0.39421174 14408925
-0.72064072 0.95577908 0.39445144 14672096
-0.7034592 0.96585399 0.39451367 14211545
-0.68507439 0.97566563 0.39527923 14606304
-0.66904724 0.98596984 0.39489761 14737890
-0.65109074 0.99565256 0.39456135 14869476
-0.63495845 1.0064 0.3948732 14803940
-0.61826545 1.0168115 0.39523226 14803941
-0.60045433 1.0282897 0.39633918 14803940
-0.5820471 1.0364759 0.39625275 14606560
-0.5652495 1.0474265 0.39672536 14540254
-0.54639071 1.0549877 0.39597237 14540511
-0.53072327 1.0668975 0.39628106 14540253
-0.51247609 1.0755671 0.39594531 14409181
-0.49718982 1.0861068 0.397596 14606305
-0.47519767 1.0944134 0.39743149 14605791
-0.46019623 1.102722 0.39665318 14671582
-0.43995568 1.1167288 0.39689121 14737889
-0.42672166 1.127458 0.39767385 14737888
-0.40926883 1.1335524 0.39628398 14408410
-0.38990262 1.1434289 0.39670539 14606046
-0.37406665 1.152781 0.3968665 14540255
-0.35580221 1.1634047 0.39729735 14211544
-0.41036791 1.1547575 0.4339321 14408924
-0.4041813 1.1584294 0.43396738 14539996
-0.38257638 1.1710986 0.43432179 14343386
-0.36342561 1.1821582 0.43489337 14277084
-0.86367911 0.88338602 0.41498649 13948115
-0.84725469 0.89323592 0.41644269 13750992
-0.82870805 0.90340447 0.41723827 14079958
-0.81127906 0.91410285 0.41617301 14013909
-0.79609299 0.92390323 0.41501036 14145496
-0.77838987 0.93526578 0.41412559 14277594
-0.76088762 0.94553185 0.41464555 14474717
-0.7440393 0.95575136 0.41479352 14474717
-0.72655451 0.96466917 0.41465241 14606561
-0.70846218 0.97483873 0.41521478 14343133
-0.69222355 0.98506904 0.41571522 14869476
-0.67453665 0.99537635 0.4140467 14869477
-0.65749693 1.0055104 0.41503379 14803683
-0.64036632 1.0151054 0.41658378 14869733
-0.62230045 1.0266889 0.41408747 15001062
-0.60707015 1.0378078 0.41638863 14869733
-0.58875096 1.0465636 0.41645005 14803425
-0.57173711 1.0569748 0.41722339 14408924
-0.55498403 1.0673358 0.41761965 14343389
-0.53749716 1.0774255 0.41918373 14606561
-0.52010357 1.0877855 0.41857836 14606560
-0.50262338 1.0980866 0.42040247 14606560
-0.48550186 1.1078191 0.42169529 14672096
-0.46844071 1.1180054 0.42139107 14803683
-0.45058393 1.1276989 0.42079246 15001061
-0.43394285 1.1379632 0.41817832 14606304
-0.41645831 1.1487519 0.42207405 14606302
-0.39868724 1.1561153 0.42186445 14605788
-0.38095716 1.1665021 0.42289737 14540252
-0.36337507 1.1778287 0.42310488 14277080
-0.86357629 0.87962848 0.40222627 14014424
-0.77844322 0.93157244 0.40394509 14277340
-0.75572413 0.94476193 0.40317184 14342874
-0.6970278 0.97847766 0.40317684 14474208
-0.66960824 0.99475163 0.40333331 14803171
-0.61375356 1.0279024 0.40365213 15001063
-0.60684007 1.0339365 0.4053728 14803939
-0.87122536 0.89442056 0.44137943 14145495
-0.85333216 0.90486896 0.44125229 14408667
-0.83705002 0.91465658 0.44166869 14342874
-0.81881261 0.92649961 0.44214147 14474461
-0.80376875 0.93652022 0.44102472 14540254
-0.7868706 0.94658577 0.44068736 14737889
-0.77044654 0.95616221 0.44040859 14606305
-0.74747115 0.96888626 0.44152588 15001062
-0.73974311 0.97468144 0.44085893 14935013
-0.71910566 0.98704857 0.44108674 14671326
-0.68746525 1.0074866 0.44280756 15001063
-0.66480863 1.0192746 0.44139656 15132904
-0.64360642 1.0319624 0.44161391 14935271
-0.63579708 1.0360788 0.44117716 15001059
-0.61025858 1.0507179 0.44084156 14935269
-0.59759706 1.0587511 0.44139516 14803681
-0.57685232 1.0701222 0.44271195 14540766
-0.56202203 1.0797971 0.44261917 14672097
-0.54402161 1.0882472 0.44213849 14803425
-0.526133 1.0995252 0.44283223 14672353
-0.50798243 1.107456 0.44304195 14540765
-0.49199942 1.1175191 0.44318062 14408667
-0.47401163 1.1288662 0.4429689 14540509
-0.45732167 1.1380628 0.44334009 14737888
-0.44115788 1.1501826 0.44380206 14409180
-0.42335531 1.1591662 0.4439916 14474461
-0.40475264 1.1696012 0.44310316 14540509
-0.38657308 1.1759847 0.44288921 14277082
-0.3692441 1.1869615 0.44408214 14211288
-0.86836123 0.88984591 0.43117574 14343385
-0.8499071 0.90037614 0.43103975 14277338
-0.83377779 0.9111734 0.43160522 14540252
-0.8174684 0.92134058 0.43099487 14474460
-0.80069751 0.9348771 0.43202299 14474717
-0.7834453 0.94394231 0.43151242 14606046
-0.76688528 0.95441407 0.43251327 14803682
-0.74989498 0.9645381 0.43196493 14869476
-0.73245925 0.97621804 0.43332085 14935268
-0.71633011 0.98679543 0.43341368 14474718
-0.69722563 0.99722004 0.43390191 14935269
-0.68093944 1.0067686 0.43355501 15066856
-0.6655134 1.0169548 0.43348634 15067110
-0.64645487 1.0264957 0.43390593 15001319
-0.62891597 1.0379827 0.43240595 14935526
-0.61303312 1.0467132 0.43361449 14803683
-0.59512907 1.0577211 0.43288529 14672353
-0.57683086 1.0669603 0.43361366 14474973
-0.56103688 1.0767449 0.43315256 14672354
-0.54264557 1.08416 0.43346873 14803683
-0.52378571 1.0966846 0.43375194 14803426
-0.50863087 1.103862 0.43329406 14671838
-0.48919612 1.1160073 0.43466455 14540511
-0.47253865 1.1261538 0.43498012 14672612
-0.45391387 1.1338879 0.43426722 14803939
-0.43942219 1.1475084 0.4343619 14803936
-0.4250049 1.155381 0.43490249 14277339
-0.40001619 1.1678425 0.43565303 14474458
-0.39305294 1.1694769 0.435417 14211021
-0.36719352 1.1848248 0.43556458 14211032
-0.37108606 1.2035307 0.47053051 14276824
-0.87683856 0.90510213 0.45603624 14211288
-0.85876423 0.91395187 0.4564237 14342875
-0.84234482 0.92461693 0.45689613 14342874
-0.82519042 0.93510365 0.45596674 14474461
-0.80752033 0.94538742 0.45256662 14540511
-0.78986758 0.95515078 0.4524864 14803683
-0.77352357 0.96479559 0.45177102 14737889
-0.75652319 0.97442329 0.45111513 14869476
-0.73772371 0.98588133 0.45162699 14935269
-0.72248447 0.99666804 0.45177811 14474718
-0.70492166 1.0060625 0.45262623 14738147
-0.68731892 1.0155963 0.45263824 14935270
-0.66935468 1.0271834 0.45169565 14935269
-0.65212208 1.0359932 0.45388234 14935270
-0.63551599 1.0467814 0.45212907 14935270
-0.61896574 1.0563964 0.45209366 14935269
-0.60197163 1.0681424 0.45363 14672096
-0.58501256 1.0768433 0.45373923 14738146
-0.56626976 1.0873444 0.45597401 14606303
-0.54944038 1.0973212 0.45601147 14672097
-0.53178322 1.1077077 0.45763069 14737889
-0.51480991 1.1193001 0.45824194 14408666
-0.49761021 1.1279886 0.45846874 14277081
-0.48039323 1.1378413 0.45945084 14146010
-0.46388909 1.1477998 0.46025527 14408923
-0.44687375 1.1605679 0.45847452 14079703
-0.4305259 1.1700157 0.45973006 14474460
-0.41172916 1.1802688 0.45876735 14343131
-0.39407098 1.1887466 0.46009305 14606047
-0.37693697 1.1966859 0.46153465 14211289
-0.77213526 0.9641819 0.44195539 14605283
-0.70929104 1.0018325 0.44178459 14738149
-0.59784567 1.0676255 0.44295019 14672352
-0.88377595 0.91515064 0.47859341 14277338
-0.8644172 0.92341918 0.47637108 14343132
-0.84743792 0.93239331 0.47612765 14474204
-0.8328231 0.9462049 0.47850698 14540509
-0.81773537 0.95663649 0.47826558 14672096
-0.79718006 0.96683538 0.47814995 14803426
-0.77939063 0.978764 0.47834027 14803683
-0.76417559 0.98685664 0.47857797 14474716
-0.74606377 0.99815428 0.47886515 14606558
-0.73153818 1.0077705 0.47838134 14606560
-0.71263087 1.0195758 0.47869766 14408926
-0.69362569 1.0303528 0.47905874 14474976
-0.67675865 1.0369841 0.47861505 14803939
-0.66010863 1.0469537 0.47946346 14935269
-0.64563406 1.0611106 0.47843176 15067367
-0.62469298 1.0702621 0.47933027 14803684
-0.60837525 1.0781808 0.47852024 14606560
-0.59033644 1.0893774 0.47963977 14540511
-0.57559419 1.0991076 0.47979563 14540768
-0.55594099 1.108332 0.4795866 14474717
-0.5385409 1.119284 0.48000735 14277336
-0.52144563 1.127775 0.48002732 14080215
-0.50395918 1.1363008 0.47929788 14343386
-0.48507798 1.1472754 0.47973299 14342875
-0.46891969 1.1561041 0.47919053 14408666
-0.45215529 1.1698685 0.47975487 14080215
-0.43441752 1.1786448 0.48079807 13948371
-0.41745946 1.1879135 0.48127893 14145752
-0.40061378 1.200698 0.48136461 14408924
-0.38275263 1.2076862 0.4800294 14342873
-0.88065284 0.91030365 0.46805567 14080216
-0.864932 0.91859972 0.46802104 14409180
-0.84322929 0.93194258 0.46807975 14408925
-0.82879049 0.94228715 0.46854758 14540509
-0.81240976 0.95379341 0.46800095 14606304
-0.7959671 0.96333647 0.4677318 14803683
-0.77757257 0.97338617 0.46780765 14803939
-0.76056051 0.98396015 0.46671808 14737633
-0.74290842 0.99315757 0.4674316 14738146
-0.72624993 1.0045856 0.4673939 14343389
-0.70877624 1.0144978 0.46885365 14606561
-0.69089484 1.0256526 0.46839976 14738147
-0.67381871 1.0334158 0.46680498 14869477
-0.65706599 1.0441514 0.46970955 15001318
-0.64121282 1.0578437 0.46909887 15066856
-0.62449276 1.0677277 0.46925414 14869476
-0.60727233 1.0771688 0.46982497 14803682
-0.58971596 1.0854517 0.46833384 14606304
-0.57189375 1.0953906 0.47042197 14540766
-0.55405235 1.1061476 0.47007668 14606559
-0.5385406 1.1140193 0.47064263 14474460
-0.52088934 1.1258322 0.47055855 14211288
-0.50078815 1.1351937 0.47058865 14343387
-0.48647624 1.1450143 0.47252572 14408669
-0.45974889 1.1585412 0.46862385 14408668
-0.45207584 1.1651294 0.47065264 14079957
-0.43150598 1.1762812 0.47042021 14277339
-0.41798779 1.1846375 0.47045267 14408667
-0.40089431 1.197879 0.47326094 14606046
-0.86419779 0.94015193 0.50437659 14343132
-0.85304499 0.94628298 0.50517601 14343132
-0.53923166 1.1330246 0.50623131 13685199
-0.5206309 1.1440644 0.50633746 13948373
-0.50919515 1.1489689 0.50648493 14014166
-0.47271666 1.1693645 0.50755113 14014424
-0.462046 1.1771097 0.50674713 14079958
-0.44951034 1.1862756 0.50674337 14342872
-0.42269102 1.2019842 0.50721186 14146263
-0.40871376 1.2104892 0.50697631 14146008
-0.38698196 1.2208124 0.50787216 14013909
-0.88778013 0.92397374 0.49413747 14408924
-0.87058115 0.93379933 0.49374348 14343130
-0.85365164 0.94380128 0.49414879 14343131
-0.83572334 0.9524433 0.49200574 14408924
-0.81880069 0.96509242 0.48980588 14606304
-0.80265528 0.97571564 0.49116811 14803940
-0.78672552 0.98497438 0.49141729 14672354
-0.7676723 0.99688518 0.4924649 14277339
-0.75120097 1.0053711 0.49252617 14475230
-0.7334851 1.0162868 0.49046952 14408925
-0.71669668 1.0255554 0.4920339 14277596
-0.7007066 1.035257 0.49138671 14606561
-0.68224674 1.0458325 0.49302673 14672354
-0.66446328 1.0563625 0.49470878 14672354
-0.64890385 1.0672809 0.49034196 14869732
-0.63185221 1.078191 0.49083614 14738146
-0.61388093 1.0897553 0.49162149 14474974
-0.59580129 1.097882 0.49266383 14540511
-0.57858562 1.1101453 0.49285859 14409437
-0.5613479 1.1187526 0.49335641 14343131
-0.54412603 1.1271932 0.49566722 13948628
-0.52678674 1.1380724 0.49660197 13751507
-0.50915158 1.1464192 0.49584013 14146009
-0.49298531 1.1574609 0.49638927 14146009
-0.47343028 1.1659921 0.49667141 14277081
-0.45863754 1.1796006 0.4966926 14145751
-0.44292665 1.1885674 0.49709642 13751249
-0.42299098 1.1990747 0.49901769 14146008
-0.40620857 1.2094965 0.49726146 14211545
-0.38865602 1.2161903 0.49703643 14079956
-0.64375955 1.0677106 0.4802742 15001319
-0.57235569 1.11009 0.48068172 14606560
-0.89335644 0.933406 0.51516271 14211800
-0.87656718 0.94318128 0.51536632 14277338
-0.85966247 0.95145977 0.51583624 14408925
-0.84434861 0.96487427 0.51492822 14409182
-0.82705283 0.97714871 0.515342 14277851
-0.80767959 0.98365307 0.51368296 14606561
-0.79386705 0.99908221 0.5162046 14540767
-0.77534795 1.0078669 0.51577091 14606817
-0.75817686 1.0174799 0.51496106 14672098
-0.74217862 1.0271902 0.51545781 14738148
-0.72398084 1.0399505 0.51529491 13948889
-0.70654339 1.0483402 0.51566124 14541282
-0.69121021 1.0594337 0.51624513 14474974
-0.671987 1.0687443 0.51552206 14409181
-0.65669304 1.080754 0.51664448 14408926
-0.63935733 1.0925082 0.51689243 14409182
-0.62506998 1.1034175 0.51681513 14343643
-0.60338891 1.1124234 0.51664752 14146010
-0.58541429 1.1183109 0.51653725 14080216
-0.56821054 1.1282568 0.51717681 14014425
-0.54960603 1.1368845 0.51539797 13751251
-0.53129005 1.1474824 0.51597679 13685714
-0.51530713 1.1577287 0.51794308 14080215
-0.49835467 1.1676204 0.51891214 14014422
-0.48142692 1.1762611 0.51879841 13883092
-0.46478429 1.1892778 0.51924282 13948370
-0.44922915 1.2017627 0.52012116 13817041
-0.4301458 1.2084501 0.51871073 13619406
-0.41169927 1.2183685 0.51672721 14080214
-0.39619148 1.2301066 0.52077389 13882322
-0.89206338 0.93032289 0.50622761 14409180
-0.87777537 0.93880302 0.50630915 14146009
-0.8581872 0.95024496 0.50669813 14408924
-0.83946609 0.96347952 0.50549936 14540254
-0.82493025 0.97372174 0.50546432 14540766
-0.80703145 0.98319685 0.50528324 14672355
-0.79011285 0.99489117 0.50624919 14606305
-0.77412057 1.0025241 0.50571203 14474975
-0.75565839 1.0144718 0.50645161 14474977
-0.73992342 1.0251433 0.50617343 14540770
-0.72086382 1.0341841 0.50696898 14014682
-0.70304817 1.0456381 0.50626063 14606562
-0.68758273 1.0557499 0.50688171 14606304
-0.66998667 1.0637951 0.50750965 14409183
-0.65348971 1.0787801 0.50696492 14540511
-0.63707238 1.0886197 0.50635636 14474973
-0.61949635 1.0991385 0.50662088 14409180
-0.60324258 1.1088536 0.50772119 14211803
-0.58591878 1.1157184 0.50700057 14146009
-0.56816781 1.1262232 0.50644159 14079959
-0.55044591 1.1328943 0.50845456 13882322
-0.53204817 1.1445907 0.50883186 13685457
-0.49630609 1.1660125 0.50828898 14080217
-0.48560044 1.1713811 0.50882471 14145752
-0.45977214 1.1867106 0.50897211 14146008
-0.44297355 1.198833 0.50858003 13685456
-0.43426216 1.2025872 0.50800908 13685967
-0.405426 1.2199473 0.50780416 14211288
-0.3987734 1.2229143 0.50932026 14211286
-0.90453112 0.94710034 0.54446077 14080472
-0.88095313 0.96185076 0.54345632 14211802
-0.64378369 1.1026146 0.54480994 14080729
-0.57715034 1.1421626 0.54519027 13948117
-0.56246841 1.1508765 0.54527408 13817045
-0.53536338 1.1669639 0.54542875 13686231
-0.52323395 1.1731707 0.54598248 13685971
-0.50855148 1.1804065 0.5461967 13488077
-0.48830259 1.1918414 0.54693162 13093059
-0.47647136 1.2004652 0.54703385 13027529
-0.45526311 1.2138323 0.54689842 12961733
-0.43835002 1.2238551 0.54701787 12961732
-0.41983953 1.2347726 0.54722714 13224904
-0.40377012 1.2434412 0.54728156 13290440
-0.90095747 0.9444114 0.53277397 14145752
-0.88419104 0.95447302 0.53366411 14343130
-0.86651039 0.96633309 0.53444111 14343131
-0.85008252 0.97819316 0.53218192 14408924
-0.83373165 0.98741293 0.53259742 14474974
-0.81590003 0.99742097 0.53129357 14540768
-0.79870844 1.0079039 0.53143471 14672353
-0.78311789 1.0201632 0.53184325 14606562
-0.7648769 1.0286195 0.53033054 14672354
-0.74714226 1.0398957 0.52999884 14606562
-0.73111665 1.0499328 0.52991146 13948632
-0.71279198 1.0604415 0.53195143 14474976
-0.69575447 1.0697954 0.53117859 14277339
-0.67861146 1.0791755 0.53252834 14277597
-0.66293186 1.0910443 0.53210533 14343388
-0.64431769 1.100943 0.53334558 14277595
-0.62653118 1.1096303 0.53042847 14211803
-0.61205512 1.1194285 0.53139114 14146266
-0.59209937 1.1314263 0.53360736 14014680
-0.57413769 1.1391625 0.53477567 13882838
-0.55739152 1.1497881 0.53433794 13948887
-0.5411616 1.1602013 0.53468561 13883093
-0.52325803 1.1689547 0.53536439 13948886
-0.50507587 1.1784689 0.53613073 13816785
-0.48697785 1.1873796 0.53547412 13619919
-0.46982509 1.1984639 0.53540528 13487821
-0.45454943 1.2113283 0.53751332 13224649
-0.43791634 1.2216234 0.53732699 13158857
-0.41955885 1.2304027 0.53504133 13619663
-0.40152469 1.2388916 0.5365243 13487563
-0.90467465 0.95219201 0.55260211 14277338
-0.89035332 0.9655056 0.55235946 14277595
-0.87275934 0.97509444 0.55232942 14211803
-0.85528404 0.98562765 0.55202186 14212059
-0.83800077 0.99507564 0.55236125 14277851
-0.82340169 1.0068446 0.5516963 14212060
-0.80577993 1.0188781 0.55355573 14343645
-0.78657651 1.0295773 0.55337548 14212060
-0.76966745 1.0375857 0.55258292 14409181
-0.75262326 1.0474138 0.55304384 14474976
-0.73677272 1.058573 0.55252755 14014679
-0.71955431 1.0693254 0.55367291 14080474
-0.70173955 1.0790635 0.55335385 14080474
-0.6839003 1.0873181 0.55345279 14014681
-0.6691758 1.0979416 0.55404443 14146266
-0.64928049 1.1103821 0.55330336 14014680
-0.63148671 1.1196815 0.55394405 13882837
-0.6153779 1.1291567 0.55621767 13751506
-0.59809309 1.1393998 0.55601263 13882837
-0.5813607 1.1484562 0.55367988 13619667
-0.56334525 1.1592698 0.55372024 13685714
-0.54574805 1.1688633 0.55470872 13554127
-0.52800304 1.1777792 0.55504954 13422285
-0.50987208 1.1886259 0.55781418 12961475
-0.4936513 1.1969599 0.55871999 12698302
-0.47631964 1.2096556 0.55896974 12896195
-0.45969126 1.2194625 0.55686641 13027525
-0.442635 1.2295403 0.5570662 12961733
-0.42622823 1.241647 0.55771512 13356492
-0.40683848 1.2498112 0.55794311 13290185
-0.85895151 0.9832679 0.54310811 14277592
-0.83326566 0.99813312 0.54382676 14540255
-0.8216098 1.0064657 0.54512823 14277595
-0.80424482 1.0172896 0.54613084 14540768
-0.78666091 1.0273674 0.54424667 14541024
-0.76840651 1.0372791 0.54321623 14540767
-0.75264829 1.0472467 0.54238003 14607074
-0.73463434 1.0579222 0.54410154 13882842
-0.71994901 1.0672616 0.54597956 14146010
-0.69911683 1.0786341 0.54404128 14211803
-0.68656385 1.0852029 0.54466403 14014683
-0.66554689 1.0997297 0.54573095 14277595
-0.6580261 1.1060048 0.5491038 14212060
-0.6306209 1.118958 0.54559433 14014679
-0.61057925 1.1321646 0.54517555 13948885
-0.60007709 1.1382021 0.54601121 13883093
-0.57378542 1.156003 0.54958463 13424085
-0.55329442 1.1681646 0.54970151 13751761
-0.91663378 0.96953857 0.58055466 14014421
-0.89852816 0.97976077 0.58144701 14014168
-0.88520384 0.98725069 0.58042228 14080218
-0.83118463 1.0204487 0.58074939 14211803
-0.65523696 1.1248764 0.58175361 13357007
-0.64322817 1.1320038 0.58182216 13356749
-0.61921066 1.1462586 0.58195925 13488847
-0.60086095 1.1563712 0.5832361 13290956
-0.58788151 1.1621915 0.58456683 13291212
-0.57092047 1.1738818 0.58379763 13225160
-0.55424672 1.1836691 0.58405745 12961989
-0.53786099 1.1945407 0.58242345 12829890
-0.51878548 1.2040422 0.58399928 12567232
-0.49969769 1.2101928 0.58510643 12764098
-0.4859848 1.2205797 0.58413607 12961731
-0.46709049 1.2339762 0.58296728 13028039
-0.44924369 1.2416855 0.584355 13093319
-0.43447798 1.2535809 0.58436948 12961990
-0.41578713 1.2642744 0.5845238 13093061
-0.91220033 0.96507812 0.56958568 14211804
-0.8960647 0.97454423 0.56930673 14211803
-0.87802696 0.98510355 0.57026082 14211802
-0.86326712 0.99834174 0.5704816 14146266
-0.8449167 1.0089628 0.57083166 14080474
-0.82790965 1.0179271 0.56884873 14211803
-0.81194335 1.0298201 0.57057279 14277596
-0.79503667 1.0379933 0.56945503 14146266
-0.77672338 1.0491128 0.56993109 14212060
-0.7605204 1.0609256 0.57100648 14409439
-0.74332654 1.0698845 0.56929886 13751254
-0.72614968 1.0807091 0.56989527 14014680
-0.70774752 1.0900757 0.57117617 13948631
-0.68921971 1.0986477 0.57128489 13817301
-0.67305374 1.1109443 0.57100856 13817300
-0.65758997 1.1206005 0.57160461 13619919
-0.64026582 1.1297399 0.57207859 13554128
-0.62084031 1.1380442 0.5730384 13554126
-0.60421228 1.1507097 0.57367963 13751251
-0.58773077 1.1626192 0.57272488 13356749
-0.57060677 1.1716779 0.57260811 13290698
-0.55211937 1.1798797 0.57263839 13224902
-0.53598279 1.1912298 0.57321423 13093320
-0.51777923 1.1984725 0.57336444 12764095
-0.49892512 1.2057568 0.57318515 12698816
-0.48035318 1.2177678 0.57342887 12830147
-0.46429926 1.2274942 0.57263625 12829890
-0.44558153 1.236143 0.57152551 12961221
-0.43113947 1.2495669 0.5723682 13027784
-0.41391787 1.2582895 0.57249528 13158855
-0.9193753 0.97425377 0.59226406 14014423
-0.90273982 0.98591691 0.59342712 14080217
-0.8860532 0.99725199 0.59131545 14146010
-0.86992967 1.0103639 0.59218103 14080730
-0.85169405 1.0199854 0.59261423 14211804
-0.83438152 1.0273594 0.59048569 14080475
-0.81715089 1.0387142 0.59045267 14146268
-0.80125695 1.0496457 0.59163302 14080732
-0.78621078 1.0617422 0.59316099 14080473
-0.76586998 1.072678 0.59257662 14014682
-0.74932504 1.0799768 0.59162688 13422801
-0.73256111 1.0915155 0.59335506 13817301
-0.71448207 1.0999945 0.58967847 13883094
-0.69675493 1.1111518 0.59187669 13685715
-0.68156672 1.1202044 0.59157997 13554130
-0.66346776 1.1314932 0.59234357 13422541
-0.6457032 1.1401955 0.59214497 13356750
-0.62777382 1.1515726 0.59129202 13225421
-0.61196655 1.1613054 0.59364849 13158855
-0.59376854 1.168552 0.59690166 12764352
-0.57691002 1.1810479 0.59499037 12961731
-0.55855793 1.1892112 0.59557974 12633021
-0.54130602 1.2005404 0.59452122 12501438
-0.52369231 1.2098165 0.59715343 12633026
-0.50651556 1.2160839 0.59858352 12698822
-0.48824343 1.2300062 0.59866011 12895685
-0.47395781 1.2402869 0.59566313 12895939
-0.4531951 1.247452 0.59548038 12896199
-0.43501329 1.2588509 0.59539759 13027528
-0.41906962 1.2686657 0.59559923 12895939
-0.9166019 0.97771567 0.58038318 14014421
-0.87842894 1.0027909 0.5830161 14211545
-0.86936295 1.007952 0.58284825 14146265
-0.85526037 1.0159372 0.58254457 14146011
-0.81623548 1.0372849 0.58095604 14474716
-0.79508334 1.0539663 0.58351499 14212317
-0.78310961 1.0593073 0.58324206 14212060
-0.76659924 1.0689776 0.58346862 14278110
-0.74654579 1.0786467 0.58135378 13619412
-0.72990125 1.0909443 0.58386374 13948633
-0.72071147 1.09558 0.58212024 13949148
-0.699494 1.1089915 0.5840373 13817815
-0.67565221 1.1226584 0.58369046 13619923
-0.6713258 1.1281289 0.58661312 13619665
-0.60616618 1.1619643 0.58215499 13488335
-0.92625439 0.9863531 0.6174103 13290957
-0.90904701 0.99761325 0.61779529 13225165
-0.89585382 1.0053993 0.61793733 13290705
-0.85392421 1.0309944 0.61710829 13159121
-0.84677452 1.0352379 0.61714906 13290445
-0.61202514 1.1745654 0.61848891 12435644
-0.60249221 1.1802233 0.61854333 12501438
-0.58819276 1.1887103 0.61862493 12238008
-0.56245369 1.2039869 0.61877179 12172475
-0.54109788 1.2144359 0.61982298 12633025
-0.52920121 1.2171 0.6168198 12566977
-0.51164305 1.2275602 0.61625534 12632769
-0.49391598 1.2383739 0.61782128 12435644
-0.47941694 1.248509 0.61802936 12435386
-0.46506128 1.2595707 0.61782485 12567228
