# .PCD v0.7 - Point Cloud Data file format
VERSION 0.7
FIELDS x y z
SIZE 4 4 4
TYPE F F F
COUNT 1 1 1
WIDTH 1422
HEIGHT 1
VIEWPOINT 0 0 0 1 0 0 0
POINTS 1422
DATA ascii
-0.010299516 0.34959775 0.042600818
0.0096128406 0.34959683 0.042603731
0.030005053 0.34945646 0.042617038
0.050015125 0.3496528 0.04259849
0.069981873 0.34956476 0.042606812
0.090051197 0.34955838 0.042607427
0.11007067 0.34954938 0.042608242
0.13003305 0.34963617 0.042600062
0.15005113 0.34950271 0.042612627
0.17006956 0.34955755 0.04260746
0.19003275 0.3496201 0.042601559
0.20999806 0.34954217 0.042608913
0.23006755 0.34955794 0.042607408
0.25008643 0.34953362 0.042609744
0.27004951 0.34962809 0.042600788
0.29006737 0.34951061 0.042611934
-0.28997868 0.36845979 0.040817041
-0.27004406 0.36849549 0.040813722
-0.24999265 0.36840665 0.040822096
-0.22994252 0.36853173 0.040810157
-0.21000761 0.36842352 0.040820394
-0.19001652 0.3684645 0.040816516
-0.16996507 0.36849096 0.04081402
-0.14997295 0.36841446 0.04082121
-0.13003822 0.36847723 0.040815309
-0.11004449 0.36844674 0.040818222
-0.089996435 0.36853594 0.040809743
-0.069943577 0.36849058 0.040814038
-0.049897522 0.36834833 0.040827528
-0.030076947 0.36849111 0.040813994
-0.010491911 0.36849129 0.04081399
0.0097924294 0.36849004 0.04081665
0.030076846 0.3684901 0.040816698
0.049897365 0.36834696 0.040830225
0.069943316 0.36848947 0.040816773
0.089996137 0.36853501 0.040812466
0.11004403 0.36844561 0.04082093
0.13003784 0.36847597 0.040818065
0.14997235 0.36841342 0.040823985
0.16996443 0.36848959 0.040816691
0.1900159 0.3684634 0.040819243
0.21000698 0.36842257 0.040823109
0.22994168 0.36853054 0.040812813
0.24999191 0.36840534 0.040824674
0.27004316 0.36849436 0.040816247
0.28997776 0.36845896 0.040819593
-0.29002205 0.38886246 0.05068177
-0.27002311 0.38885054 0.050807331
-0.2500208 0.38885435 0.050765794
-0.23013665 0.38886061 0.050702445
-0.21001701 0.38885471 0.050764222
-0.18989803 0.38886046 0.050702464
-0.17001326 0.38885438 0.050765771
-0.1500109 0.38886261 0.050681759
-0.13001251 0.38885039 0.050807334
-0.11000852 0.38885835 0.05072394
-0.09000653 0.38885435 0.050765779
-0.070006952 0.38885045 0.050807357
-0.050123475 0.38886052 0.050702453
-0.030356493 0.38886052 0.05070246
-0.010589465 0.38886046 0.05070246
0.0098835016 0.3888604 0.050702494
0.030356495 0.38886052 0.050702464
0.050123483 0.38886046 0.050702445
0.070006929 0.38885027 0.050807334
0.090006523 0.38885444 0.050765771
0.11000851 0.38885835 0.050723918
0.13001248 0.38885048 0.050807334
0.15001093 0.38886243 0.050681766
0.17001325 0.38885438 0.05076579
0.18989798 0.38886052 0.050702453
0.21001706 0.38885453 0.050764214
0.23013671 0.38886052 0.05070246
0.25002083 0.38885444 0.05076576
0.27002314 0.38885039 0.050807331
0.29002196 0.38886261 0.050681759
-0.29000896 0.38701543 0.070001334
-0.27005196 0.3870016 0.070145257
-0.2501021 0.38701075 0.070049733
-0.23001041 0.38701078 0.070049085
-0.20991869 0.38701084 0.070049703
-0.18996412 0.38700145 0.070145234
-0.17001419 0.38701522 0.070001334
-0.15006143 0.38700619 0.070097171
-0.13010636 0.38700634 0.070097826
-0.11001821 0.38701531 0.070001669
-0.089924902 0.38700622 0.070097789
-0.070113145 0.38700151 0.070146263
-0.050017521 0.38701954 0.069956467
-0.029933678 0.38700145 0.070146285
-0.010392214 0.38701075 0.070049413
0.0096993996 0.38701066 0.07004939
0.029933678 0.38700154 0.07014621
0.05001751 0.38701963 0.069956459
0.07011313 0.38700157 0.070146263
0.089924902 0.3870061 0.070097834
0.11001822 0.38701534 0.070001677
0.13010636 0.38700628 0.070097826
0.15006144 0.38700625 0.070097119
0.1700142 0.38701546 0.070001334
0.18996415 0.38700169 0.07014522
0.20991872 0.38701069 0.070049748
0.23001036 0.38701084 0.0700491
0.25010207 0.38701072 0.070049755
0.27005196 0.38700148 0.070145279
0.29000893 0.38701546 0.070001304
-0.28996605 0.38522261 0.088744238
-0.27001655 0.38523018 0.088668413
-0.24995108 0.38522801 0.088686921
-0.23000109 0.38523167 0.08865004
-0.21005157 0.38522446 0.088724516
-0.18998545 0.38521907 0.08878205
-0.17003591 0.38522989 0.088668413
-0.15008421 0.38522255 0.088744268
-0.13002023 0.38522831 0.088686936
-0.10995528 0.38523337 0.088631116
-0.090006724 0.38522616 0.088706747
-0.070053779 0.38523003 0.088667966
-0.050106607 0.38521549 0.088820018
-0.029927222 0.38523003 0.088668577
-0.010202404 0.38522989 0.088668488
0.0095222425 0.38523039 0.088668458
0.029927224 0.3852303 0.088668488
0.050106589 0.38521576 0.088819936
0.070053786 0.38523042 0.088667832
0.090006724 0.38522652 0.088706583
0.10995528 0.3852337 0.088631041
0.13002025 0.38522848 0.088686816
0.15008421 0.38522264 0.088744096
0.1700359 0.38523033 0.088668302
0.18998547 0.38521931 0.088781901
0.20993854 0.38522652 0.08870583
0.22988747 0.38523018 0.088669159
0.24995111 0.38522878 0.088686727
0.27001658 0.38523033 0.088668153
0.28996608 0.38522336 0.088744044
-0.28998828 0.38320524 0.10984535
-0.26991963 0.38320804 0.10981499
-0.25004244 0.3832022 0.10987623
-0.23006976 0.38319966 0.10990475
-0.21000135 0.38320777 0.10981502
-0.19002762 0.38320801 0.10981485
-0.16995969 0.38320258 0.10987499
-0.14998764 0.38319924 0.10990737
-0.13010933 0.38320836 0.10981496
-0.11004201 0.38319954 0.10990469
-0.089973375 0.38320833 0.10981499
-0.069999658 0.38320839 0.10981489
-0.050025892 0.38320822 0.10981499
-0.030052071 0.38320807 0.109815
-0.010374687 0.38319024 0.11000256
0.0097084222 0.38319117 0.10999055
0.030052075 0.3832081 0.10981489
0.05002588 0.38320807 0.10981496
0.069999665 0.38320836 0.10981494
0.089973405 0.38320795 0.10981495
0.11004198 0.38319921 0.10990465
0.13010931 0.38320786 0.1098149
0.14998761 0.38319933 0.10990722
0.16995969 0.38320217 0.10987505
0.19002758 0.38320807 0.10981493
0.21000141 0.38320813 0.1098149
0.2300697 0.38319913 0.10990456
0.25004241 0.38320225 0.10987619
0.2699196 0.38320813 0.10981484
0.28998825 0.38320521 0.1098452
-0.29002434 0.38126281 0.13015811
-0.27002895 0.38126579 0.13012372
-0.24992798 0.38126439 0.13014121
-0.22993094 0.38127062 0.13007484
-0.21004872 0.38125953 0.13019112
-0.19005182 0.38127246 0.13005847
-0.16995099 0.38125783 0.13020715
-0.14995596 0.38126755 0.13010776
-0.1299624 0.38126126 0.13017403
-0.11007605 0.38126603 0.13012467
-0.090081535 0.38126275 0.13015634
-0.06997928 0.38127384 0.13004164
-0.049879458 0.3812536 0.13025543
-0.029992083 0.38126746 0.13010763
-0.010432002 0.38126746 0.1301077
0.0097800018 0.38126758 0.13010761
0.029992087 0.38126767 0.13010764
0.049879447 0.38125336 0.13025555
0.069979288 0.38127381 0.13004152
0.090081535 0.38126287 0.13015625
0.11007603 0.38126588 0.13012454
0.12996243 0.38126117 0.1301738
0.14995597 0.38126764 0.13010763
0.16995099 0.38125798 0.130207
0.19005181 0.38127246 0.13005815
0.21004882 0.38125962 0.13019107
0.22993103 0.3812708 0.13007455
0.249928 0.3812643 0.13014106
0.27002892 0.381266 0.13012341
0.29002437 0.38126281 0.13015792
-0.29007706 0.37926537 0.15104581
-0.26998711 0.37926099 0.15109299
-0.2500037 0.37926689 0.15103048
-0.23002058 0.37925807 0.151124
-0.210144 0.37927136 0.1509835
-0.19015913 0.37925971 0.15110786
-0.17007163 0.37927008 0.15099914
-0.14998095 0.37926254 0.15107666
-0.12989198 0.37926105 0.1510928
-0.11001287 0.37926856 0.15101479
-0.090138547 0.37926379 0.15106191
-0.070047043 0.37926877 0.15101485
-0.05006725 0.37925348 0.15117197
-0.029975787 0.37926725 0.15103059
-0.010204575 0.37926692 0.15103056
0.0095667886 0.3792671 0.15103053
0.029975787 0.37926725 0.15103054
0.050067246 0.37925336 0.15117198
0.070047073 0.37926832 0.15101489
0.090138525 0.37926385 0.15106189
0.11001288 0.37926844 0.15101482
0.12989195 0.37926093 0.15109277
0.14998099 0.37926248 0.15107663
0.17007166 0.37927014 0.15099914
0.1901592 0.37925962 0.15110774
0.21014392 0.37927157 0.15098336
0.23002054 0.37925822 0.15112393
0.2500037 0.37926722 0.15103044
0.26998714 0.37926087 0.1510928
0.290077 0.37926543 0.15104569
-0.29015797 0.38025376 0.14071205
-0.27016929 0.38025376 0.14071205
-0.25018066 0.38025376 0.14071205
-0.23019201 0.38025376 0.14071205
-0.21020333 0.38025376 0.14071205
-0.19021468 0.38025376 0.14071205
-0.17022601 0.38025376 0.14071205
-0.15023737 0.38025376 0.14071205
-0.13024874 0.38025376 0.14071205
-0.11025999 0.38025376 0.14071205
-0.090271391 0.38025376 0.14071205
-0.07028275 0.38025376 0.14071205
-0.050294064 0.38025376 0.14071205
-0.030305374 0.38025376 0.14071205
-0.0103168 0.38025376 0.14071205
0.0096720001 0.38025376 0.14071205
0.030305378 0.38025376 0.14071205
0.05029406 0.38025376 0.14071205
0.070282742 0.38025376 0.14071205
0.090271391 0.38025376 0.14071205
0.11025999 0.38025376 0.14071205
0.13024874 0.38025376 0.14071205
0.15023738 0.38025376 0.14071205
0.17022602 0.38025376 0.14071205
0.19021468 0.38025376 0.14071205
0.21020333 0.38025376 0.14071205
0.23019201 0.38025376 0.14071205
0.25018066 0.38025376 0.14071205
0.27016938 0.38025376 0.14071205
0.290158 0.38025376 0.14071205
-0.28995925 0.37748662 0.16964868
-0.26995713 0.3774721 0.1697993
-0.24995413 0.37748647 0.16964862
-0.22995003 0.3774865 0.16964886
-0.20985833 0.37748164 0.16969846
-0.18985319 0.37748152 0.16969931
-0.16993964 0.37748629 0.16964886
-0.14993548 0.37748656 0.1696488
-0.12993398 0.37747201 0.16979931
-0.1099304 0.37748662 0.16964886
-0.089926198 0.37748656 0.16964863
-0.069922045 0.37748644 0.16964878
-0.049917884 0.37748656 0.16964863
-0.029913696 0.37748641 0.16964877
-0.010276538 0.37747151 0.16980465
0.009651009 0.37747225 0.16979523
0.029913699 0.37748629 0.16964877
0.049917895 0.37748647 0.16964886
0.069922052 0.37748641 0.16964866
0.089926198 0.37748641 0.16964887
0.1099304 0.37748656 0.16964872
0.129934 0.37747225 0.16979921
0.14993544 0.37748626 0.16964875
0.16993967 0.3774865 0.16964881
0.18985315 0.37748149 0.16969928
0.20985833 0.37748188 0.16969845
0.22995006 0.37748644 0.16964886
0.24995421 0.3774865 0.16964881
0.26995715 0.37747201 0.16979913
0.28995922 0.37748638 0.16964881
-0.29004997 0.37550732 0.1903469
-0.27003452 0.3755109 0.19030608
-0.25002173 0.37551662 0.19024478
-0.23000714 0.37550879 0.19032685
-0.20991756 0.37552178 0.19019386
-0.18990248 0.37550756 0.19033729
-0.16996586 0.37551883 0.19022435
-0.15002832 0.37550983 0.19031692
-0.13009006 0.37551272 0.19028604
-0.1100003 0.37551749 0.19023421
-0.089909278 0.37551448 0.19026516
-0.069973245 0.37551367 0.19027549
-0.049958393 0.37550983 0.19031651
-0.030023159 0.3755106 0.19030681
-0.010389399 0.37551749 0.19023436
0.0097782584 0.3755177 0.19023441
0.030023167 0.37551105 0.19030684
0.049958397 0.37550968 0.19031656
0.069973245 0.37551361 0.19027562
0.0899093 0.3755146 0.19026519
0.1100003 0.37551752 0.19023418
0.13009007 0.37551263 0.19028601
0.15002835 0.37550941 0.190317
0.16996585 0.37551868 0.1902243
0.1899025 0.37550777 0.19033743
0.20991756 0.37552145 0.19019382
0.23000714 0.37550849 0.19032674
0.25002182 0.37551695 0.19024481
0.27003458 0.37551066 0.19030613
0.29005 0.37550658 0.19034706
-0.28998172 0.61055368 0.19900601
-0.26997244 0.61054099 0.19900729
-0.24996494 0.61055309 0.1990061
-0.22995587 0.61058593 0.19900297
-0.21003994 0.61054099 0.1990072
-0.19003369 0.61057544 0.19900407
-0.1700238 0.61060828 0.1990009
-0.15001725 0.61048675 0.19901249
-0.13000786 0.61058557 0.19900304
-0.11009182 0.61049676 0.19901156
-0.090085194 0.61064208 0.1989978
-0.069980957 0.61061859 0.19899996
-0.049885452 0.61042011 0.19901867
-0.030060323 0.61058575 0.19900304
-0.010521134 0.61058629 0.19900291
0.0097696288 0.61058611 0.19900312
0.030060323 0.61058611 0.19900316
0.049885456 0.61041993 0.19901887
0.069980957 0.61061835 0.19900008
0.090085194 0.61064196 0.19899775
0.11009185 0.61049694 0.19901149
0.13000785 0.61058599 0.19900291
0.15001725 0.61048669 0.19901223
0.17002383 0.6106084 0.19900104
0.19003369 0.61057532 0.19900411
0.21004002 0.61054128 0.19900723
0.22995587 0.61058557 0.19900298
0.24996494 0.61055291 0.19900614
0.26997247 0.61054122 0.19900738
0.28998175 0.61055332 0.19900611
-0.28996977 0.629879 0.19717863
-0.26999444 0.62982118 0.19718409
-0.25002009 0.62987936 0.19717857
-0.23004429 0.629798 0.1971861
-0.20997588 0.6298672 0.1971795
-0.19000016 0.62987924 0.19717853
-0.17002437 0.62984401 0.19718187
-0.1500501 0.62987924 0.19717851
-0.13007481 0.62982076 0.19718397
-0.1100058 0.62979788 0.19718604
-0.090030946 0.62987959 0.19717845
-0.070151195 0.62987894 0.19717845
-0.050271373 0.62987936 0.19717842
-0.030391626 0.62987936 0.19717847
-0.01061397 0.62979591 0.19718638
0.0098490026 0.62980151 0.19718587
0.030391624 0.62987906 0.19717836
0.050271388 0.62987906 0.19717853
0.070151195 0.6298793 0.19717833
0.090030946 0.62987942 0.19717851
0.11000578 0.62979764 0.19718608
0.13007484 0.62982118 0.19718386
0.1500501 0.62987942 0.19717827
0.17002435 0.62984377 0.19718172
0.19000015 0.62987912 0.19717842
0.20997596 0.62986761 0.19717957
0.23004423 0.62979847 0.1971861
0.25002009 0.6298793 0.19717821
0.26999456 0.62982076 0.19718391
0.2899698 0.62987906 0.19717842
-0.28980321 0.64476252 0.19683753
-0.26983061 0.64473492 0.19679722
-0.25001782 0.64478207 0.1968524
-0.23004638 0.64476234 0.19683763
-0.21007642 0.64473122 0.19683339
-0.19026481 0.64474291 0.19685616
-0.1702908 0.64476228 0.19683763
-0.15016551 0.64476216 0.19683746
-0.13004027 0.64476216 0.19683754
-0.10991494 0.64476246 0.19683757
-0.089789689 0.64476252 0.19683756
-0.069664434 0.64476228 0.19683754
-0.049539145 0.64476216 0.19683748
-0.029413879 0.64476252 0.19683762
-0.010062633 0.64476222 0.19683759
0.0092885839 0.64476252 0.19683753
0.029413877 0.64476252 0.1968376
0.049539138 0.64476234 0.19683748
0.069664419 0.64476258 0.19683747
0.089789696 0.64476299 0.19683741
0.10991497 0.64476264 0.19683747
0.13004026 0.64476258 0.19683753
0.15016554 0.64476264 0.19683751
0.17029083 0.64476258 0.19683746
0.19026484 0.64474291 0.19685604
0.21007644 0.6447314 0.19683343
0.23004638 0.6447624 0.19683751
0.25001785 0.6447826 0.19685227
0.26983067 0.64473492 0.19679716
0.28980321 0.64476252 0.19683751
-0.28998438 0.37362739 0.21000393
-0.27000374 0.3736316 0.20995976
-0.25002101 0.37362558 0.210026
-0.23004092 0.37363791 0.20989379
-0.20997487 0.37362948 0.20998149
-0.18999207 0.37362736 0.2100042
-0.17009684 0.3736358 0.20991637
-0.15011595 0.37362733 0.21000393
-0.13004895 0.37363169 0.20995952
-0.10998202 0.37363368 0.20993799
-0.090002038 0.37362954 0.20998199
-0.070019171 0.37363169 0.20995943
-0.050040059 0.37362322 0.21004798
-0.029887561 0.37363356 0.20993792
-0.01016175 0.37363368 0.209938
0.0095640002 0.37363389 0.20993796
0.029887563 0.37363362 0.20993796
0.050040033 0.37362322 0.21004805
0.070019178 0.37363169 0.20995943
0.090002052 0.37362957 0.20998193
0.10998203 0.37363374 0.20993805
0.13004898 0.3736316 0.20995957
0.15011598 0.37362748 0.21000393
0.17009681 0.37363571 0.2099164
0.18999207 0.37362739 0.21000421
0.20997488 0.37362948 0.20998146
0.23004088 0.37363812 0.20989388
0.25002098 0.37362543 0.21002589
0.27000374 0.37363157 0.20995949
0.28998441 0.37362739 0.21000369
-0.28992879 0.39412671 0.21947475
-0.269977 0.3941797 0.2194697
-0.25002876 0.39412671 0.21947476
-0.2299895 0.39410019 0.21947727
-0.20995474 0.3941797 0.2194697
-0.19000421 0.39412639 0.21947479
-0.17005235 0.3941797 0.21946976
-0.15001714 0.39411315 0.21947616
-0.12997983 0.39415321 0.21947214
-0.10994286 0.39412639 0.21947481
-0.08999218 0.39417991 0.21946979
-0.069958262 0.39408758 0.21947829
-0.050001532 0.39422044 0.21946585
-0.030059928 0.39408767 0.21947855
-0.010277582 0.39415321 0.21947232
0.0096730161 0.39415309 0.21947241
0.030059936 0.39408758 0.21947867
0.050001528 0.39422041 0.21946579
0.069958247 0.3940877 0.21947868
0.089992203 0.39418027 0.21946979
0.10994285 0.39412639 0.21947481
0.12997988 0.39415359 0.21947224
0.15001711 0.39411312 0.21947622
0.17005239 0.39417961 0.2194699
0.19000417 0.39412642 0.21947488
0.20995478 0.39417964 0.21946965
0.22998948 0.39410001 0.21947719
0.25002885 0.3941268 0.21947482
0.269977 0.39417976 0.21946971
0.28992885 0.39412645 0.21947494
-0.28992665 0.40974465 0.21799779
-0.26995835 0.40976697 0.21799535
-0.25008389 0.40973726 0.21799834
-0.2300676 0.40979028 0.21799338
-0.20995654 0.40972987 0.21799915
-0.1899882 0.40972963 0.21799918
-0.17001912 0.40978202 0.21799411
-0.14990862 0.40973011 0.21799907
-0.12993953 0.40977472 0.21799479
-0.10997041 0.40973768 0.21799831
-0.089955218 0.40975195 0.21799703
-0.070032388 0.409767 0.21799548
-0.050017994 0.40965512 0.21800604
-0.030143859 0.40979007 0.21799344
-0.010458066 0.4097895 0.21799368
0.0098428857 0.40979013 0.21799348
0.030143859 0.40978968 0.21799347
0.050018009 0.40965527 0.21800637
0.070032373 0.40976715 0.21799555
0.089955211 0.40975207 0.21799709
0.10997041 0.40973741 0.21799865
0.12993959 0.40977445 0.21799508
0.14990865 0.40973011 0.21799898
0.17001915 0.40978205 0.21799415
0.1899882 0.40972969 0.21799919
0.2099566 0.40972957 0.21799919
0.23006757 0.40979004 0.21799324
0.25008383 0.40973729 0.21799843
0.26995826 0.40976676 0.21799569
0.28992677 0.40974501 0.21799766
-0.28999168 0.43006983 0.21607567
-0.26997009 0.43004441 0.21607818
-0.24989705 0.43008292 0.21607463
-0.22992773 0.43001726 0.21608074
-0.21001175 0.43005332 0.21607712
-0.18993844 0.43008387 0.21607439
-0.16991673 0.43003982 0.21607834
-0.15000114 0.4300223 0.21608007
-0.12997994 0.4300836 0.21607421
-0.10995795 0.4300316 0.21607909
-0.08998993 0.43004408 0.21607803
-0.069969803 0.4300352 0.21607895
-0.049895495 0.43008348 0.21607435
-0.029819995 0.43011326 0.21607138
-0.010225615 0.42996123 0.21608578
0.009542725 0.42999807 0.21608265
0.02976886 0.43008372 0.2160743
0.049895506 0.43008316 0.21607439
0.069969803 0.43003595 0.21607873
0.08998996 0.43004388 0.216078
0.10995793 0.43003139 0.21607912
0.12992743 0.4300707 0.21607538
0.14994879 0.4300355 0.21607867
0.16991669 0.43003997 0.21607859
0.18993847 0.43008384 0.21607429
0.21001181 0.43005326 0.21607703
0.2299277 0.43001738 0.21608064
0.24989702 0.43008336 0.21607423
0.26991731 0.43003136 0.21607926
0.28993961 0.43008396 0.21607441
-0.29008481 0.44954249 0.21423414
-0.27006152 0.44955343 0.21423274
-0.24997939 0.44951189 0.21423694
-0.22995444 0.44953325 0.21423453
-0.20998955 0.44957262 0.21423092
-0.19002356 0.449543 0.21423398
-0.17000021 0.44954288 0.21423389
-0.15009186 0.44951195 0.21423699
-0.1300685 0.44958305 0.21422999
-0.11004543 0.4495123 0.21423663
-0.090019725 0.44954354 0.21423389
-0.069938004 0.44954154 0.21423399
-0.050029777 0.44960439 0.21422812
-0.030010838 0.44945288 0.2142424
-0.01027506 0.44957271 0.21423106
0.0096328668 0.44957301 0.21423107
0.030010849 0.44945285 0.21424253
0.050029788 0.4496038 0.21422802
0.069938019 0.44954205 0.21423402
0.090019718 0.44954368 0.2142338
0.11004541 0.44951153 0.21423665
0.13006848 0.44958374 0.2142299
0.1500919 0.44951135 0.21423659
0.17000018 0.4495433 0.21423376
0.1900236 0.44954303 0.21423359
0.2099895 0.44957298 0.21423087
0.22995445 0.44953266 0.2142345
0.24997932 0.44951245 0.21423663
0.27006164 0.44955379 0.21423286
0.2900849 0.44954237 0.21423402
-0.2901043 0.46983954 0.21231431
-0.2700417 0.46989337 0.2123092
-0.25003532 0.46983388 0.21231483
-0.23002762 0.46995255 0.21230347
-0.21002023 0.46985403 0.21231295
-0.19006875 0.46984902 0.21231326
-0.17000575 0.46988392 0.21231005
-0.1499995 0.46985397 0.21231274
-0.1300467 0.4699077 0.21230765
-0.11003918 0.46985921 0.21231252
-0.090033263 0.46987861 0.21231042
-0.070024274 0.46986827 0.21231173
-0.050019771 0.46978068 0.21231997
-0.030175982 0.4699139 0.21230721
-0.010496018 0.46991336 0.21230721
0.0098400125 0.46991333 0.21230733
0.030176001 0.46991327 0.21230724
0.050019763 0.46978047 0.21231994
0.070024267 0.46986836 0.21231161
0.090033233 0.46987852 0.21231067
0.11003917 0.46985906 0.21231242
0.13004668 0.46990824 0.212308
0.14999948 0.46985403 0.21231315
0.17000578 0.46988374 0.21231021
0.19006874 0.46984908 0.21231334
0.21002026 0.469854 0.212313
0.23002757 0.4699524 0.21230352
0.25003532 0.469834 0.21231487
0.2700417 0.46989343 0.2123093
0.29010421 0.46983925 0.21231419
-0.29006666 0.49015352 0.21039318
-0.27004075 0.49018514 0.2103902
-0.25001451 0.49017861 0.21039069
-0.23005727 0.49014062 0.21039443
-0.21009856 0.49012777 0.21039557
-0.19007315 0.49018472 0.21039023
-0.17004821 0.49016649 0.21039188
-0.15008907 0.49015346 0.21039312
-0.13006335 0.49018469 0.21039002
-0.11010674 0.49008319 0.2103997
-0.090147488 0.49018514 0.21038994
-0.070054583 0.49018478 0.21039003
-0.04996172 0.49018508 0.21039006
-0.029868746 0.4901852 0.21039006
-0.010254394 0.49004722 0.21040311
0.0095841717 0.49005562 0.21040234
0.029868742 0.49018443 0.21038997
0.04996172 0.49018493 0.2103902
0.070054591 0.49018493 0.21039017
0.090147503 0.49018505 0.21038996
0.1101067 0.49008292 0.21039967
0.1300634 0.49018472 0.21039008
0.15008911 0.49015296 0.21039313
0.17004827 0.49016643 0.21039166
0.19007316 0.49018505 0.21038999
0.21009849 0.49012777 0.21039547
0.23005736 0.49014062 0.21039413
0.25001448 0.49017912 0.21039057
0.27004075 0.49018449 0.2103902
0.29006657 0.49015337 0.21039298
-0.29004189 0.50932539 0.20858003
-0.27003649 0.50938541 0.20857437
-0.24996378 0.50931859 0.20858067
-0.22995782 0.50935197 0.20857742
-0.21002156 0.50932503 0.20858002
-0.18994735 0.50936526 0.20857629
-0.16994187 0.50933099 0.20857938
-0.15007395 0.50940561 0.20857233
-0.13006875 0.50929183 0.20858321
-0.10999445 0.5093596 0.20857686
-0.08998879 0.50929749 0.20858273
-0.069984257 0.50947875 0.20856553
-0.050118789 0.50921589 0.20859049
-0.030042976 0.50937843 0.20857504
-0.010241926 0.50937897 0.20857503
0.0095591303 0.50937855 0.20857501
0.030042969 0.50937873 0.20857486
0.050118785 0.50921559 0.20859045
0.069984257 0.50947851 0.20856567
0.089988783 0.50929731 0.2085827
0.10999443 0.50935954 0.20857692
0.13006876 0.50929201 0.20858321
0.15007395 0.50940567 0.20857233
0.16994184 0.50933087 0.20857963
0.18994737 0.50936532 0.20857613
0.21002162 0.50932527 0.20858015
0.22995782 0.50935191 0.20857753
0.24996388 0.50931853 0.20858078
0.27003652 0.50938487 0.20857446
0.29004204 0.50932503 0.20857996
-0.29001737 0.52925587 0.20669486
-0.27003261 0.52927732 0.20669267
-0.24997963 0.52933478 0.2066873
-0.22999492 0.52935505 0.20668532
-0.21001004 0.52925026 0.20669535
-0.19002582 0.52929842 0.20669074
-0.17004065 0.52929282 0.20669132
-0.15005775 0.52935565 0.20668526
-0.13000348 0.52924359 0.20669597
-0.11001894 0.52933389 0.20668726
-0.090032831 0.52922958 0.20669714
-0.069980204 0.52944124 0.20667714
-0.049859863 0.52916741 0.20670313
-0.029942796 0.52933437 0.2066872
-0.010445141 0.52933413 0.20668736
0.0097487997 0.52933395 0.2066872
0.029942796 0.52933443 0.2066873
0.049859863 0.52916718 0.20670308
0.069980174 0.52944118 0.20667715
0.090032838 0.52922988 0.20669711
0.11001894 0.52933389 0.20668739
0.13000351 0.52924335 0.2066958
0.15005767 0.52935529 0.20668548
0.17004068 0.52929235 0.20669132
0.1900259 0.5292989 0.20669055
0.21001011 0.52924985 0.20669538
0.22999492 0.52935576 0.20668553
0.2499797 0.52933455 0.20668703
0.27003255 0.52927822 0.20669258
0.29001743 0.52925628 0.20669472
-0.29006299 0.55003047 0.20473026
-0.27002963 0.55005997 0.20472729
-0.2500667 0.55009812 0.20472367
-0.23003173 0.5500387 0.20472948
-0.2099991 0.55009812 0.20472383
-0.19003667 0.55003077 0.20473012
-0.17000265 0.55007517 0.20472585
-0.15003969 0.55009824 0.20472367
-0.13007653 0.55005974 0.2047274
-0.11004309 0.55004507 0.20472874
-0.090010501 0.55003041 0.2047302
-0.070047058 0.55009842 0.20472388
-0.050154727 0.55009788 0.20472379
-0.030262409 0.55009782 0.20472381
-0.010520429 0.54997462 0.2047354
0.0098095862 0.54998308 0.20473461
0.030262422 0.550098 0.20472376
0.050154727 0.55009818 0.20472369
0.070047066 0.5500977 0.20472364
0.090010516 0.55003077 0.20473003
0.11004309 0.55004507 0.20472853
0.13007647 0.55006033 0.2047272
0.1500397 0.55009753 0.20472366
0.17000273 0.55007499 0.20472582
0.19003665 0.55003023 0.20473
0.20999911 0.55009836 0.20472376
0.23003176 0.55003834 0.2047293
0.25006664 0.55009782 0.20472363
0.27002963 0.55006039 0.20472729
0.29006299 0.55003071 0.20472988
-0.28997925 0.57059205 0.20278545
-0.26993918 0.57059246 0.20278552
-0.24997966 0.57062733 0.20278223
-0.23002067 0.5705747 0.20278721
-0.20997919 0.57055676 0.20278884
-0.19002037 0.57059151 0.20278557
-0.16998023 0.5705924 0.20278545
-0.15001978 0.57055604 0.2027888
-0.13014196 0.57055622 0.20278892
-0.1101004 0.57060999 0.20278378
-0.089979023 0.57059252 0.20278543
-0.070021845 0.5704481 0.2027992
-0.049981315 0.57060981 0.20278388
-0.029699039 0.57060999 0.20278382
-0.010141137 0.57060987 0.20278373
0.0094167711 0.57061005 0.20278387
0.029699042 0.57060981 0.20278384
0.049981304 0.57060993 0.20278394
0.070021838 0.57044846 0.20279902
0.089979038 0.57059264 0.20278552
0.1101004 0.57060999 0.20278384
0.13014194 0.5705564 0.20278873
0.15001979 0.57055622 0.20278889
0.16998026 0.57059234 0.20278552
0.19002038 0.57059151 0.20278549
0.20997924 0.5705567 0.20278884
0.2300207 0.57057428 0.20278707
0.24997967 0.57062727 0.20278206
0.26993918 0.5705927 0.20278543
0.28997928 0.57059222 0.20278522
-0.28997383 0.59074825 0.20087901
-0.27004698 0.5907681 0.2008771
-0.24995473 0.5907498 0.20087896
-0.22994462 0.59080541 0.20087369
-0.21001923 0.59080499 0.20087363
-0.18992552 0.59073138 0.20088057
-0.1699173 0.59084278 0.20087005
-0.15007186 0.59069234 0.20088433
-0.12997951 0.59078741 0.20087531
-0.10997048 0.5908047 0.20087385
-0.090042338 0.59080577 0.20087369
-0.069871113 0.59063762 0.20088944
-0.0499372 0.59097725 0.20085719
-0.030021014 0.59063786 0.20088941
-0.010333052 0.59080511 0.2008737
0.009594976 0.59080547 0.20087349
0.030021004 0.59063756 0.20088938
0.049937196 0.59097707 0.20085721
0.06987115 0.59063745 0.20088957
0.090042353 0.59080571 0.20087355
0.10997047 0.59080487 0.20087366
0.12997955 0.59078741 0.20087536
0.15007193 0.59069192 0.20088434
0.16991729 0.59084296 0.20087019
0.18992546 0.59073114 0.20088054
0.21001932 0.59080505 0.2008737
0.22994465 0.59080553 0.20087355
0.24995475 0.59074944 0.20087884
0.27004689 0.59076804 0.20087713
0.28997383 0.59074819 0.20087916
-0.29004875 0.64542633 0.21091135
-0.27005458 0.6454317 0.21085359
-0.25005898 0.64542454 0.21093023
-0.22998124 0.64542937 0.21087323
-0.20998587 0.64543164 0.21085361
-0.19007581 0.64543158 0.21085352
-0.170081 0.6454286 0.2108923
-0.15000126 0.64542574 0.2109112
-0.12992252 0.64542419 0.21093008
-0.10992829 0.64543205 0.21085371
-0.090018213 0.64543223 0.21085359
-0.070108175 0.64543182 0.21085359
-0.050198138 0.64543164 0.21085368
-0.030288113 0.64543164 0.21085355
-0.010558566 0.64541894 0.21099228
0.0097922189 0.64541972 0.2109822
0.030288121 0.645432 0.21085364
0.050198149 0.64543241 0.21085362
0.070108175 0.64543152 0.21085359
0.090018235 0.64543182 0.21085374
0.10992828 0.64543152 0.21085352
0.12992251 0.64542383 0.21093009
0.15000123 0.64542633 0.21091115
0.17008106 0.64542818 0.21089232
0.19007581 0.64543182 0.21085358
0.20998591 0.64543194 0.21085368
0.22998121 0.64542985 0.21087286
0.25005895 0.64542443 0.21093038
0.27005464 0.645432 0.21085361
0.29004884 0.64542621 0.21091145
-0.28991452 0.37553713 0.22100231
-0.26998144 0.37554559 0.22101089
-0.25004855 0.37553704 0.22100234
-0.23011787 0.37551102 0.22100024
-0.2101831 0.37553725 0.22100237
-0.19005278 0.37553719 0.22100239
-0.17002141 0.37553167 0.22100072
-0.14998956 0.37553725 0.22100256
-0.12995835 0.37551701 0.22100216
-0.11002647 0.37550232 0.22100331
-0.08999446 0.37553704 0.22100243
-0.069864102 0.37553713 0.2210023
-0.049733736 0.37553719 0.2210025
-0.029603446 0.37553716 0.22100231
-0.010065198 0.37553731 0.22100234
0.0094731264 0.37553701 0.22100244
0.029603446 0.37553704 0.22100228
0.049733743 0.37553716 0.22100239
0.069864124 0.37553701 0.22100241
0.089994453 0.37553716 0.22100224
0.11002646 0.37550232 0.22100328
0.12995833 0.37551701 0.22100213
0.14998956 0.37553713 0.22100243
0.17002143 0.37553146 0.22100066
0.19005284 0.37553698 0.22100222
0.21018307 0.37553719 0.22100227
0.23011786 0.37551099 0.22100033
0.25004855 0.37553731 0.22100234
0.26998153 0.37554535 0.22101076
0.28991449 0.37553701 0.22100234
-0.28996354 0.38428983 0.22040515
-0.26993576 0.38428256 0.22040559
-0.2499065 0.38428983 0.22040516
-0.22997814 0.38425991 0.22040819
-0.20994908 0.38428247 0.22040585
-0.18992037 0.38430464 0.22040358
-0.16999336 0.38427487 0.22040635
-0.149964 0.38429713 0.22040464
-0.12993501 0.38426018 0.22040783
-0.10990793 0.38425294 0.22040862
-0.089876965 0.38434973 0.22039942
-0.070050277 0.38426724 0.22040735
-0.050123658 0.38425267 0.22040881
-0.029893408 0.3842901 0.22040507
-0.01016375 0.38428965 0.22040506
0.0095658824 0.38428968 0.22040516
0.029893404 0.38428968 0.22040516
0.050123669 0.38425273 0.22040841
0.070050277 0.38426709 0.2204074
0.089876994 0.38434994 0.22039939
0.10990794 0.38425249 0.22040883
0.12993498 0.38425958 0.22040798
0.14996396 0.38429731 0.22040443
0.16999336 0.38427493 0.22040641
0.18992037 0.38430458 0.22040367
0.20994908 0.38428256 0.22040595
0.2299781 0.38426009 0.22040781
0.24990655 0.38428977 0.22040504
0.26993573 0.38428241 0.22040579
0.28996354 0.38428965 0.22040504
-0.29006714 0.64350402 0.2310081
-0.27000988 0.64351237 0.23091683
-0.24995348 0.64350677 0.23097149
-0.22997963 0.64351058 0.23093553
-0.21000646 0.64351439 0.23089838
-0.18995257 0.64350891 0.23095304
-0.16989429 0.64350712 0.23097166
-0.14992294 0.64350665 0.23097193
-0.13003203 0.64351028 0.23093572
-0.11005791 0.64351141 0.23093477
-0.090004228 0.64351457 0.23089829
-0.0699457 0.64351249 0.23091759
-0.049895305 0.64349639 0.23108079
-0.030085443 0.64351285 0.23091683
-0.010529888 0.64351267 0.2309169
0.0097777555 0.64351279 0.23091686
0.030085448 0.64351237 0.23091674
0.049895294 0.64349705 0.23108071
0.06994576 0.64351219 0.23091742
0.090004243 0.6435141 0.23089819
0.11005791 0.64351058 0.23093471
0.13003203 0.64351082 0.23093575
0.14992295 0.64350712 0.23097187
0.16989435 0.64350665 0.23097178
0.18995263 0.64350879 0.23095316
0.21000656 0.64351428 0.23089841
0.2299796 0.64351088 0.23093562
0.24995354 0.64350718 0.23097156
0.27000996 0.64351243 0.23091695
0.29006714 0.64350379 0.23100796
-0.28991717 0.64165777 0.2503123
-0.26988539 0.64165956 0.25029588
-0.25001487 0.64165598 0.2503309
-0.23006116 0.64166617 0.25022665
-0.21003017 0.64165306 0.2503655
-0.19007613 0.64165741 0.25031254
-0.17004275 0.64165908 0.25029555
-0.15000834 0.64166129 0.25027803
-0.12997565 0.64165419 0.25034708
-0.11002227 0.64165741 0.25031367
-0.090070777 0.64166462 0.25024289
-0.069957212 0.64164662 0.25043321
-0.049997699 0.64167613 0.25011921
-0.030058073 0.64164579 0.25043288
-0.010345685 0.64166105 0.2502782
0.009606706 0.64166045 0.25027806
0.030058077 0.64164639 0.25043288
0.049997695 0.64167619 0.25011927
0.069957204 0.64164674 0.25043303
0.090070777 0.64166403 0.25024289
0.11002227 0.64165765 0.25031376
0.12997566 0.64165437 0.25034705
0.15000834 0.64166111 0.2502782
0.17004272 0.64165956 0.25029561
0.19007613 0.64165705 0.25031245
0.2100302 0.64165312 0.25036556
0.23006125 0.6416657 0.25022662
0.25001484 0.64165568 0.25033081
0.26988548 0.64165908 0.25029585
0.28991714 0.64165866 0.25031239
-0.28996444 0.63938236 0.27410457
-0.27008706 0.63938153 0.2741172
-0.25009045 0.63938606 0.27406782
-0.22997123 0.63938451 0.27407998
-0.20997302 0.63939172 0.27400717
-0.18997692 0.63938224 0.27410448
-0.16997972 0.6393801 0.27412885
-0.14998259 0.63938993 0.27403125
-0.12998348 0.63938713 0.27405581
-0.10998601 0.63938487 0.27407989
-0.090112947 0.63937628 0.2741667
-0.070112623 0.639386 0.2740677
-0.049873848 0.6393863 0.27406788
-0.029635301 0.63938588 0.27406788
-0.010119359 0.63938606 0.27406806
0.0093965475 0.63938588 0.274068
0.029635301 0.63938588 0.27406794
0.049873836 0.6393857 0.27406803
0.070112623 0.63938576 0.27406803
0.090112932 0.6393767 0.2741667
0.10998601 0.6393851 0.27407977
0.1299835 0.63938719 0.27405563
0.14998262 0.63938934 0.27403128
0.16997972 0.63937992 0.27412894
0.18997692 0.63938248 0.27410433
0.20997301 0.63939178 0.27400741
0.22997122 0.63938475 0.27407995
0.25009045 0.63938594 0.27406773
0.27008715 0.63938111 0.27411726
0.28996441 0.63938272 0.27410433
-0.2900745 0.64035809 0.2639049
-0.27000359 0.64036119 0.26386672
-0.24975236 0.64035976 0.26388535
-0.22986811 0.64036137 0.26386684
-0.20998283 0.64036334 0.26384792
-0.18991441 0.64035976 0.26388544
-0.16984831 0.64035612 0.26392305
-0.14995869 0.64036876 0.26379046
-0.13007656 0.64035964 0.2638855
-0.11001251 0.64035612 0.26392308
-0.089758433 0.64036167 0.26386672
-0.06986586 0.64036691 0.26380828
-0.050176669 0.64035589 0.26392308
-0.029919477 0.64036167 0.26386669
-0.010216405 0.64036143 0.26386684
0.0094866604 0.64036149 0.26386669
0.029919486 0.64036131 0.26386675
0.050176669 0.64035594 0.26392311
0.069865845 0.64036721 0.26380828
0.089758433 0.64036131 0.26386684
0.11001251 0.64035594 0.26392302
0.13007659 0.64035958 0.26388553
0.14995871 0.64036876 0.26379037
0.16984834 0.640356 0.26392305
0.18991445 0.64035982 0.26388541
0.20998284 0.64036322 0.26384801
0.22986811 0.64036167 0.26386684
0.24975236 0.64035952 0.26388535
0.27000365 0.64036119 0.26386672
0.29007447 0.64035767 0.2639049
-0.28998682 0.63785911 0.29003158
-0.27005255 0.6378575 0.2900466
-0.25011602 0.6378572 0.29004508
-0.23003972 0.63786161 0.2900039
-0.21003293 0.63786411 0.28998294
-0.19009714 0.63786346 0.289983
-0.17009023 0.63786077 0.29001781
-0.15001248 0.63785917 0.29003155
-0.12993556 0.63785815 0.29004526
-0.10992929 0.63786364 0.28998294
-0.089993313 0.63786399 0.28998286
-0.070057511 0.63786405 0.28998303
-0.050121676 0.63786346 0.2899833
-0.030185778 0.63786328 0.28998271
-0.010474379 0.63784909 0.2901338
0.0097618354 0.6378507 0.29012334
0.03018577 0.6378637 0.28998274
0.050121695 0.63786352 0.28998286
0.070057526 0.63786411 0.28998286
0.089993343 0.63786393 0.28998309
0.10992926 0.63786399 0.28998321
0.12993555 0.63785779 0.2900452
0.15001245 0.63785905 0.29003128
0.17009024 0.63785994 0.29001775
0.19009718 0.63786346 0.28998283
0.2100329 0.63786411 0.28998321
0.23003978 0.63786173 0.29000396
0.25011605 0.63785797 0.29004517
0.27005252 0.63785768 0.29004669
0.28998685 0.63785875 0.29003158
-0.29002553 0.63592541 0.3102532
-0.26996735 0.63593048 0.31020507
-0.24997167 0.63593245 0.31018159
-0.22997545 0.63592368 0.31027687
-0.20998144 0.63593727 0.31013319
-0.18998601 0.63592863 0.31021708
-0.16992833 0.6359269 0.31024101
-0.14993149 0.63592726 0.31024188
-0.13000126 0.63592821 0.31022969
-0.11006727 0.63593519 0.31015745
-0.090010941 0.63592708 0.3102403
-0.069950692 0.6359356 0.31014597
-0.049896032 0.63591504 0.31035933
-0.030025523 0.63593274 0.31018162
-0.010474015 0.63593245 0.31018129
0.0097757448 0.6359328 0.31018144
0.030025532 0.63593221 0.31018162
0.049896032 0.63591564 0.31035915
0.069950685 0.63593566 0.31014577
0.090010934 0.63592714 0.31024024
0.11006729 0.63593471 0.31015733
0.13000132 0.63592798 0.31022981
0.14993155 0.63592643 0.31024164
0.16992836 0.63592613 0.31024107
0.18998595 0.63592905 0.31021723
0.20998144 0.63593674 0.31013322
0.22997548 0.63592297 0.31027693
0.24997172 0.63593251 0.31018168
0.2699675 0.63593036 0.3102054
0.29002556 0.63592577 0.31025362
-0.29000667 0.63398421 0.33055201
-0.26997223 0.63397962 0.33059675
-0.2499359 0.63398057 0.33058602
-0.23002729 0.63398725 0.33051836
-0.21005401 0.63398284 0.33056322
-0.19001976 0.63398063 0.33058569
-0.16998367 0.63398153 0.33057424
-0.15001245 0.63398916 0.33049595
-0.13003893 0.63397932 0.3305971
-0.110006 0.63398409 0.33055183
-0.089968137 0.63397527 0.33064196
-0.06993553 0.63399339 0.33045149
-0.050088115 0.63397831 0.33060908
-0.030054741 0.63398021 0.33058512
-0.01026659 0.63398588 0.33052957
0.0095821507 0.63398588 0.33052963
0.030054746 0.63398075 0.330585
0.05008813 0.63397843 0.33060911
0.069935538 0.63399303 0.33045128
0.08996813 0.63397521 0.33064196
0.110006 0.63398343 0.33055195
0.1300389 0.63397992 0.33059701
0.15001245 0.63398892 0.33049598
0.16998366 0.63398194 0.33057436
0.19001976 0.63398015 0.33058581
0.21005397 0.63398266 0.33056334
0.23002724 0.63398761 0.33051834
0.24993595 0.63398087 0.3305859
0.26997223 0.6339798 0.33059675
0.29000679 0.63398331 0.33055231
-0.28998807 0.63211071 0.35012966
-0.27003706 0.63211405 0.3500973
-0.25008759 0.63211042 0.35014033
-0.23007464 0.63211209 0.35011899
-0.21006249 0.63211513 0.35008657
-0.19005124 0.63211179 0.35012951
-0.17003953 0.63210988 0.35014042
-0.15002774 0.63211471 0.35009733
-0.13001524 0.63211352 0.35010812
-0.1100034 0.63211268 0.35011885
-0.090054058 0.63210529 0.35018325
-0.070041679 0.63211542 0.35008699
-0.049907088 0.63211524 0.35008702
-0.029772626 0.6321156 0.35008705
-0.01019428 0.63210529 0.35018685
0.0095228041 0.63210618 0.35018057
0.029772634 0.63211596 0.35008687
0.049907107 0.63211483 0.35008687
0.070041664 0.63211608 0.3500869
0.090054035 0.63210595 0.35018364
0.11000335 0.63211256 0.35011873
0.13001533 0.63211393 0.35010812
0.15002783 0.63211435 0.3500976
0.17003959 0.63211012 0.35014051
0.19005126 0.63211107 0.35012946
0.21006252 0.63211584 0.3500869
0.23007467 0.63211167 0.35011858
0.25008756 0.63211 0.35014006
0.27003706 0.63211477 0.35009748
0.28998792 0.63211119 0.35012946
-0.29006818 0.831339 0.35920718
-0.27002704 0.83134073 0.35920709
-0.2501415 0.83140123 0.35920128
-0.23009823 0.83140147 0.35920116
-0.20989704 0.83140224 0.3592011
-0.19001231 0.83127719 0.35921296
-0.1701268 0.83146346 0.35919526
-0.15024418 0.83133906 0.35920724
-0.1301994 0.83140224 0.35920104
-0.10999791 0.83134031 0.359207
-0.089956038 0.83140081 0.35920122
-0.070068747 0.83146429 0.3591952
-0.050192602 0.83121496 0.35921887
-0.029985994 0.83140182 0.35920119
-0.010258416 0.83140171 0.35920125
0.0094693052 0.83140159 0.35920122
0.029986002 0.83140159 0.35920125
0.050192606 0.83121455 0.3592189
0.070068762 0.83146459 0.35919526
0.08995606 0.83140081 0.35920128
0.10999791 0.83134043 0.35920686
0.13019942 0.83140182 0.35920131
0.15024418 0.8313393 0.35920718
0.17012677 0.8314634 0.35919547
0.19001229 0.83127701 0.35921308
0.20989704 0.83140182 0.35920119
0.23009823 0.83140153 0.35920122
0.2501415 0.83140141 0.35920125
0.27002701 0.83134073 0.35920703
0.29006815 0.83133906 0.35920724
-0.29006729 0.85127312 0.35732213
-0.27000114 0.85140246 0.35730982
-0.24993728 0.85127294 0.35732198
-0.23003045 0.85114247 0.35733426
-0.21012986 0.85146922 0.35730341
-0.19006099 0.85120988 0.357328
-0.1699933 0.8514691 0.3573035
-0.14993326 0.85120922 0.35732779
-0.13002476 0.85133803 0.35731596
-0.11011891 0.85127509 0.35732186
-0.090053536 0.85140336 0.35730961
-0.07015314 0.85114217 0.35733435
-0.050076079 0.85153174 0.35729754
-0.030027669 0.85114259 0.35733432
-0.010434334 0.85133821 0.35731554
0.0096316906 0.85133862 0.3573159
0.030027676 0.85114241 0.35733426
0.050076071 0.85153145 0.35729745
0.07015311 0.85114241 0.35733446
0.090053536 0.85140264 0.35730946
0.1101189 0.85127485 0.35732165
0.13002476 0.85133785 0.35731581
0.14993325 0.85120952 0.35732794
0.1699933 0.85146952 0.35730353
0.19006096 0.85121 0.35732815
0.21012984 0.85146952 0.35730359
0.23003045 0.85114217 0.35733443
0.24993731 0.85127294 0.35732174
0.27000117 0.85140288 0.35730976
0.29006729 0.85127336 0.35732204
-0.29001251 0.86999333 0.35555163
-0.27003998 0.86982137 0.35556796
-0.24986027 0.86978149 0.35557175
-0.22988921 0.86986494 0.35556379
-0.2101173 0.86982197 0.35556802
-0.18994427 0.8698656 0.35556385
-0.16976896 0.86990744 0.35555989
-0.14999758 0.86986476 0.35556376
-0.1300244 0.86969787 0.35557964
-0.11005484 0.8698647 0.35556388
-0.090076685 0.87003219 0.35554799
-0.069706425 0.86969727 0.35557961
-0.049728375 0.869865 0.35556376
-0.030163251 0.86986476 0.35556388
-0.010597917 0.86986518 0.35556388
0.0097826915 0.86986512 0.35556385
0.030163251 0.86986488 0.35556388
0.049728375 0.8698647 0.35556388
0.069706418 0.86969727 0.35557953
0.090076678 0.87003237 0.35554802
0.11005483 0.86986494 0.35556397
0.13002442 0.86969781 0.35557973
0.14999758 0.86986464 0.35556391
0.16976896 0.86990696 0.35555983
0.18994422 0.86986572 0.35556385
0.21011728 0.86982149 0.35556793
0.22988926 0.8698647 0.35556385
0.24986024 0.86978132 0.35557175
0.27004001 0.86982203 0.35556805
0.29001257 0.86999309 0.35555169
-0.2900323 0.8890034 0.3537541
-0.26998952 0.88900316 0.35375425
-0.24978581 0.88886261 0.35376754
-0.22974066 0.88900334 0.35375413
-0.20986362 0.88900352 0.35375425
-0.18998641 0.88900363 0.35375413
-0.16994525 0.88893235 0.35376075
-0.14990206 0.88900334 0.35375389
-0.12986165 0.88886243 0.3537674
-0.10981879 0.88900357 0.35375413
-0.089941695 0.88900357 0.35375425
-0.070064522 0.88900334 0.35375419
-0.050187446 0.88900357 0.35375419
-0.030310281 0.88900352 0.35375407
-0.010609964 0.88885677 0.35376808
0.0097810626 0.88886809 0.35376701
0.03031029 0.88900369 0.35375425
0.050187442 0.88900357 0.35375419
0.070064515 0.88900346 0.35375392
0.089941688 0.88900357 0.35375386
0.10981879 0.88900346 0.35375404
0.12986167 0.88886243 0.35376757
0.14990202 0.88900346 0.35375413
0.16994523 0.88893247 0.35376093
0.18998639 0.88900363 0.35375422
0.20986359 0.88900357 0.35375416
0.22974077 0.88900322 0.35375401
0.24978581 0.88886243 0.35376751
0.26998964 0.88900286 0.35375419
0.2900323 0.8890034 0.35375404
-0.29005334 0.90314084 0.35551825
-0.26999202 0.90314102 0.35551825
-0.24993069 0.90314102 0.35551819
-0.2298694 0.90314084 0.35551822
-0.20980805 0.9031409 0.35551798
-0.18974687 0.90314084 0.35551813
-0.16968536 0.90314096 0.35551801
-0.14962412 0.90314078 0.35551804
-0.12956278 0.90314084 0.35551816
-0.10950143 0.90314108 0.35551828
-0.089440107 0.90314114 0.35551816
-0.069378749 0.90314078 0.35551822
-0.049317446 0.90314078 0.35551813
-0.029256063 0.9031412 0.35551825
-0.010030673 0.90314102 0.3555181
0.0091947867 0.90314114 0.35551822
0.029256068 0.90314072 0.35551807
0.049317457 0.90314102 0.35551801
0.069378749 0.90314078 0.35551831
0.089440115 0.90314096 0.35551816
0.10950144 0.90314108 0.35551807
0.12956277 0.90314078 0.35551819
0.14962415 0.9031409 0.35551825
0.16968536 0.90314114 0.35551804
0.18974681 0.90314096 0.35551822
0.20980813 0.90314084 0.35551822
0.22986946 0.90314114 0.35551825
0.24993062 0.9031412 0.35551813
0.26999205 0.90314102 0.35551816
0.2900534 0.90314102 0.35551825
-0.28997901 0.63140857 0.3712965
-0.27003279 0.63139832 0.37129694
-0.24999927 0.63140732 0.37135139
-0.2299664 0.63140291 0.37125257
-0.20997658 0.63143706 0.37134558
-0.18990014 0.63139075 0.37130219
-0.16991055 0.63142443 0.37131357
-0.149964 0.63140762 0.37129691
-0.12993175 0.63138705 0.37133828
-0.10994206 0.63143772 0.37129754
-0.089995429 0.63141847 0.37131047
-0.069920525 0.63139147 0.37139621
-0.049975045 0.63141161 0.37128085
-0.030248046 0.63141102 0.3712807
-0.010521073 0.63141143 0.37128073
0.009863507 0.63141161 0.37128118
0.030248046 0.63141108 0.37128082
0.049975038 0.63141167 0.37128046
0.069920518 0.63139164 0.37139636
0.089995429 0.631419 0.37131071
0.10994209 0.63143796 0.37129766
0.12993175 0.6313867 0.37133855
0.14996411 0.63140845 0.37129691
0.16991051 0.63142478 0.37131384
0.18990019 0.63139063 0.37130147
0.20997658 0.63143718 0.37134501
0.22996637 0.63140255 0.37125257
0.24999923 0.6314069 0.37135211
0.27003285 0.63139766 0.37129667
0.28997895 0.63140917 0.37129644
-0.2900205 0.64954871 0.37639895
-0.26995674 0.64947021 0.37640595
-0.24989332 0.64954895 0.3763991
-0.22992422 0.64954907 0.37639877
-0.2099549 0.64954883 0.37639865
-0.1899866 0.64941525 0.37641123
-0.17001915 0.64954901 0.37639895
-0.15004978 0.64954901 0.37639886
-0.12998661 0.64947063 0.37640634
-0.10992275 0.64954901 0.3763988
-0.089953467 0.64954871 0.37639883
-0.06998428 0.64954871 0.3763988
-0.050014958 0.64954883 0.37639877
-0.030045735 0.64954871 0.37639883
-0.010372842 0.6493845 0.37641436
0.0097066956 0.64939505 0.37641332
0.030045727 0.64954901 0.37639931
0.050014958 0.64954853 0.37639877
0.069984294 0.64954919 0.3763991
0.089953475 0.64954901 0.37639883
0.10992275 0.64954901 0.37639901
0.12998664 0.64946997 0.37640619
0.15004978 0.64954907 0.37639895
0.17001915 0.64954901 0.37639877
0.18998659 0.64941549 0.37641138
0.20995492 0.64954853 0.37639862
0.22992425 0.64954883 0.37639922
0.24989344 0.64954871 0.37639901
0.26995686 0.64947045 0.37640628
0.29002044 0.64954901 0.37639895
-0.28989771 0.66938639 0.37452331
-0.26991159 0.66949898 0.37451264
-0.25002354 0.66938567 0.3745234
-0.23003496 0.66941518 0.37452051
-0.20995313 0.66952813 0.37450984
-0.18996736 0.66935843 0.37452582
-0.16997968 0.66944355 0.37451813
-0.14999349 0.66938651 0.37452313
-0.13000798 0.66952723 0.37450978
-0.1100207 0.66947109 0.37451503
-0.090036772 0.66941416 0.37452063
-0.070048116 0.66944367 0.37451801
-0.050065372 0.66932935 0.3745285
-0.029883396 0.6694715 0.37451491
-0.010187489 0.66947126 0.37451506
0.0095083229 0.6694712 0.37451485
0.029883392 0.66947114 0.374515
0.050065383 0.66933036 0.37452856
0.070048131 0.66944396 0.37451768
0.090036787 0.66941458 0.37452012
0.11002064 0.66947162 0.37451509
0.130008 0.66952753 0.37450939
0.14999351 0.66938668 0.37452284
0.16997968 0.66944343 0.37451753
0.18996739 0.66935885 0.37452531
0.20995317 0.66952813 0.37450927
0.23003499 0.66941583 0.37452048
0.2500236 0.66938633 0.37452304
0.26991156 0.66949958 0.37451234
0.28989774 0.66938698 0.37452304
-0.29006639 0.69016087 0.37255827
-0.2699635 0.69028085 0.37254718
-0.25005963 0.69009954 0.37256417
-0.23015246 0.69022053 0.37255266
-0.21004803 0.69022095 0.37255257
-0.18994474 0.69007051 0.37256724
-0.1700411 0.69025075 0.37254986
-0.15003361 0.69010162 0.37256402
-0.13003053 0.69028121 0.37254685
-0.11002673 0.69016147 0.37255821
-0.090020254 0.6901899 0.37255538
-0.070115238 0.69016129 0.37255821
-0.050010119 0.69027907 0.372547
-0.030012 0.69006944 0.37256694
-0.010398805 0.69022059 0.37255266
0.0097055491 0.69022083 0.37255263
0.030011997 0.69006974 0.37256694
0.050010145 0.69027913 0.37254715
0.070115246 0.69016159 0.37255833
0.090020269 0.69018996 0.37255555
0.11002669 0.69016176 0.37255806
0.13003059 0.69028151 0.37254676
0.15003362 0.69010192 0.37256378
0.17004107 0.69025058 0.37254962
0.18994474 0.69007075 0.37256661
0.21004809 0.69022107 0.3725526
0.2301525 0.69022024 0.37255281
0.25005972 0.69010007 0.37256396
0.26996356 0.6902808 0.372547
0.29006648 0.69016117 0.37255821
-0.28992394 0.71020752 0.37066212
-0.27001476 0.71026301 0.37065694
-0.2501024 0.71031821 0.37065184
-0.22996233 0.71015334 0.37066734
-0.20993249 0.71026313 0.37065682
-0.19002268 0.71020746 0.37066227
-0.17011359 0.71026373 0.37065685
-0.15008704 0.71019042 0.37066373
-0.13005954 0.71026343 0.37065661
-0.11014919 0.71024466 0.37065861
-0.090122029 0.71020812 0.370662
-0.070097029 0.71017146 0.37066582
-0.050187271 0.71026379 0.37065691
-0.030395074 0.71026331 0.37065703
-0.010602918 0.71026337 0.37065679
0.0098960567 0.71026349 0.37065724
0.03039507 0.71026421 0.37065709
0.050187275 0.71026379 0.37065727
0.070097029 0.71017164 0.37066588
0.090122029 0.71020824 0.37066245
0.11014918 0.71024495 0.37065911
0.13005954 0.71026373 0.37065718
0.150087 0.71019083 0.37066412
0.17011362 0.71026373 0.37065721
0.19002271 0.710208 0.37066245
0.20993254 0.71026391 0.37065732
0.22996236 0.71015406 0.37066758
0.25010231 0.71031922 0.37065196
0.27001479 0.71026403 0.37065729
0.28992397 0.71020854 0.37066251
-0.28987721 0.72948623 0.36883932
-0.26984006 0.72938657 0.36884889
-0.2498039 0.72948563 0.3688392
-0.22988389 0.72944611 0.36884305
-0.20996949 0.72948551 0.36883914
-0.18993114 0.72938687 0.36884871
-0.16989617 0.72948563 0.36883926
-0.14985736 0.72946602 0.36884123
-0.12982123 0.72948581 0.3688392
-0.10978245 0.7294268 0.36884493
-0.089867085 0.72938669 0.36884895
-0.069831505 0.72948569 0.3688392
-0.049673956 0.72948593 0.36883923
-0.029516414 0.72948539 0.36883935
-0.010078793 0.72948563 0.36883938
0.0093588801 0.72948527 0.36883935
0.029516419 0.72948533 0.36883914
0.049673956 0.72948527 0.36883932
0.069831505 0.72948581 0.36883914
0.089867055 0.72938687 0.36884865
0.10978247 0.72942638 0.36884505
0.12982121 0.72948581 0.36883917
0.14985733 0.7294662 0.36884123
0.16989616 0.72948521 0.36883953
0.18993109 0.72938687 0.36884865
0.20996948 0.72948569 0.36883932
