# .PCD v0.7 - Point Cloud Data file format
VERSION 0.7
FIELDS x y z
SIZE 4 4 4
TYPE F F F
COUNT 1 1 1
WIDTH 1343
HEIGHT 1
VIEWPOINT 0 0 0 1 0 0 0
POINTS 1343
DATA ascii
-0.53507823 0.89579922 -0.0090563707
-0.52520847 0.89579964 -0.0090564089
-0.51498616 0.89580005 -0.0090564443
-0.50476402 0.89579964 -0.0090564089
-0.49489415 0.89579922 -0.0090563707
-0.48502451 0.89579964 -0.0090564089
-0.47480235 0.89580005 -0.0090564443
-0.46490875 0.89554799 -0.0090326024
-0.45508665 0.89605087 -0.00908018
-0.4451932 0.89580005 -0.0090564443
-0.434971 0.89579964 -0.0090564089
-0.42510113 0.89579922 -0.0090563707
-0.41523159 0.89579976 -0.0090565523
-0.4050093 0.89580029 -0.0090566492
-0.39478704 0.89579988 -0.0090566473
-0.38491756 0.89579952 -0.0090566464
-0.37504768 0.89579993 -0.0090566473
-0.36482534 0.89580029 -0.0090566492
-0.35494971 0.89554828 -0.0090328585
-0.34509224 0.89605111 -0.0090804351
-0.33521622 0.89580029 -0.0090566492
-0.32499412 0.89579988 -0.0090566473
-0.31477231 0.89554834 -0.0090328585
-0.30490187 0.89605111 -0.0090804351
-0.2950325 0.89580029 -0.0090566492
-0.28516796 0.89554834 -0.0090328585
-0.27494204 0.89579993 -0.0090566473
-0.26471159 0.89605123 -0.0090804351
-0.2548486 0.89580023 -0.0090566492
-0.24499054 0.89554828 -0.0090328585
-0.23475832 0.89579988 -0.0090566473
-0.2248726 0.8960709 -0.0090822671
-0.21538615 0.89554834 -0.0090328585
-0.20514919 0.89579988 -0.0090566473
-0.19490729 0.89605111 -0.0090804351
-0.18505549 0.89580029 -0.0090566492
-0.17520879 0.89554834 -0.0090328585
-0.16496539 0.89579993 -0.0090566473
-0.15471686 0.89605123 -0.0090804351
-0.14525387 0.89552939 -0.0090310294
-0.13535626 0.89579993 -0.0090566473
-0.12478141 0.89579988 -0.0090566473
-0.11843634 0.89579993 -0.0090566473
0.069793001 0.89579993 -0.0090566473
0.075080581 0.89579993 -0.0090566473
0.084597468 0.89579993 -0.0090566473
0.095172331 0.89579993 -0.0090566473
0.10542714 0.89554828 -0.0090328585
0.11487654 0.8960709 -0.0090822671
0.12478141 0.89579993 -0.0090566473
0.13535626 0.89579988 -0.0090566473
0.14525387 0.89552939 -0.0090310294
0.15471686 0.89605111 -0.0090804351
0.16496539 0.89579988 -0.0090566473
0.17520879 0.89554834 -0.0090328585
0.18505551 0.89580029 -0.0090566492
0.19490728 0.89605111 -0.0090804351
0.20514917 0.89579988 -0.0090566473
0.21538615 0.89554834 -0.0090328585
0.22487259 0.89607084 -0.0090822671
0.23475833 0.89579988 -0.0090566473
0.24499051 0.89554828 -0.0090328585
0.25484857 0.89580023 -0.0090566492
0.26471159 0.89605123 -0.0090804351
0.27494207 0.89579993 -0.0090566473
0.28516796 0.89554834 -0.0090328585
0.2950325 0.89580023 -0.0090566492
0.30490187 0.89605111 -0.0090804351
0.31477231 0.89554828 -0.0090328585
0.32499412 0.89579993 -0.0090566473
0.33521622 0.89580029 -0.0090566492
0.34509221 0.89605111 -0.0090804351
0.35494971 0.89554834 -0.0090328585
0.36482534 0.89580029 -0.0090566492
0.37504768 0.89579988 -0.0090566473
0.38491762 0.89579958 -0.0090566464
0.39478704 0.89579988 -0.0090566473
0.40500933 0.89580029 -0.0090566492
0.41523156 0.89579993 -0.0090566473
0.42510128 0.89579958 -0.0090566464
0.43497097 0.89579988 -0.0090566473
0.44519314 0.89580023 -0.0090566492
0.45508671 0.89605123 -0.0090804351
0.46490869 0.89554828 -0.0090328585
0.47480243 0.89580029 -0.0090566492
0.48502463 0.89579988 -0.0090566473
0.49489418 0.89579952 -0.0090566464
0.50476396 0.89579988 -0.0090566473
0.51498634 0.89580023 -0.0090566492
0.52520841 0.89579993 -0.0090566473
0.53507817 0.89579952 -0.0090566464
0.54052901 0.89932245 -0.0093896985
-0.54281849 0.90286642 -0.0097247958
-0.53538287 0.90286648 -0.0097247958
-0.52476013 0.90286648 -0.0097247958
-0.51519948 0.90286642 -0.0097247958
-0.5056392 0.90286648 -0.0097247958
-0.49501681 0.90286648 -0.0097247958
-0.48439398 0.90286648 -0.0097247958
-0.47483352 0.90286642 -0.0097247958
-0.4652732 0.90286648 -0.0097247958
-0.4546504 0.90286648 -0.0097247958
-0.44509 0.90286642 -0.0097247958
-0.4355298 0.90286648 -0.0097247958
-0.42490703 0.90286648 -0.0097247958
-0.41428423 0.90286648 -0.0097247958
-0.404724 0.90286642 -0.0097247958
-0.39516342 0.90286648 -0.0097247958
-0.3845408 0.90286648 -0.0097247958
-0.37498048 0.90286642 -0.0097247958
-0.36541998 0.90286648 -0.0097247958
-0.35479718 0.90286648 -0.0097247958
-0.34523699 0.90286642 -0.0097247958
-0.33567661 0.90286648 -0.0097247958
-0.32505378 0.90286648 -0.0097247958
-0.31443119 0.90286648 -0.0097247958
-0.30487075 0.90286642 -0.0097247958
-0.2953102 0.90286648 -0.0097247958
-0.28468779 0.90286648 -0.0097247958
-0.27512726 0.90286642 -0.0097247958
-0.2655668 0.90286648 -0.0097247958
-0.25494421 0.90286648 -0.0097247958
-0.24432161 0.90286648 -0.0097247958
-0.234761 0.90286642 -0.0097247958
-0.2252008 0.90286648 -0.0097247958
-0.214578 0.90286648 -0.0097247958
-0.20501749 0.90286642 -0.0097247958
-0.19545719 0.90286648 -0.0097247958
-0.1848346 0.90286648 -0.0097247958
-0.175274 0.90286642 -0.0097247958
-0.16571379 0.90286648 -0.0097247958
-0.1550912 0.90286648 -0.0097247958
-0.1444682 0.90286648 -0.0097247958
-0.13490801 0.90286642 -0.0097247958
-0.12534758 0.90286648 -0.0097247958
-0.118974 0.90286642 -0.0097247958
0.074358799 0.90286648 -0.0097247958
0.084981203 0.90286648 -0.0097247958
0.095604196 0.90286648 -0.0097247958
0.1051645 0.90286642 -0.0097247958
0.1147248 0.90286648 -0.0097247958
0.1253476 0.90286648 -0.0097247958
0.13490801 0.90286642 -0.0097247958
0.1444682 0.90286648 -0.0097247958
0.1550912 0.90286648 -0.0097247958
0.1657138 0.90286648 -0.0097247958
0.175274 0.90286642 -0.0097247958
0.1848346 0.90286648 -0.0097247958
0.19545719 0.90286648 -0.0097247958
0.20501749 0.90286642 -0.0097247958
0.21457799 0.90286648 -0.0097247958
0.22520082 0.90286648 -0.0097247958
0.234761 0.90286642 -0.0097247958
0.24432161 0.90286648 -0.0097247958
0.25494418 0.90286648 -0.0097247958
0.2655668 0.90286648 -0.0097247958
0.27512726 0.90286642 -0.0097247958
0.28468779 0.90286648 -0.0097247958
0.2953102 0.90286648 -0.0097247958
0.30487075 0.90286642 -0.0097247958
0.31443122 0.90286648 -0.0097247958
0.32505378 0.90286648 -0.0097247958
0.33567661 0.90286648 -0.0097247958
0.34523699 0.90286642 -0.0097247958
0.35479721 0.90286648 -0.0097247958
0.36541998 0.90286648 -0.0097247958
0.37498051 0.90286642 -0.0097247958
0.3845408 0.90286648 -0.0097247958
0.39516339 0.90286648 -0.0097247958
0.404724 0.90286642 -0.0097247958
0.41428417 0.90286648 -0.0097247958
0.42490703 0.90286648 -0.0097247958
0.4355298 0.90286648 -0.0097247958
0.44509 0.90286642 -0.0097247958
0.4546504 0.90286648 -0.0097247958
0.4652732 0.90286648 -0.0097247958
0.47483349 0.90286642 -0.0097247958
0.48439401 0.90286648 -0.0097247958
0.49501681 0.90286648 -0.0097247958
0.5056392 0.90286648 -0.0097247958
0.51519954 0.90286642 -0.0097247958
0.52476013 0.90286648 -0.0097247958
0.53538281 0.90286648 -0.0097247958
0.54175597 0.90286642 -0.0097247958
-0.4716205 0.69764572 0.0096845031
-0.46469763 0.69776767 0.0096729994
-0.45500678 0.69764578 0.0096845031
-0.44531867 0.69752389 0.0096960068
-0.43516114 0.69776767 0.0096729994
-0.42501554 0.69752383 0.0096960068
-0.41485479 0.69776767 0.0096729994
-0.40471318 0.69752389 0.0096960068
-0.3950167 0.69764578 0.0096845031
-0.38531816 0.69776767 0.0096729994
-0.37518165 0.69752389 0.0096960068
-0.36501169 0.69776767 0.0096729994
-0.35487872 0.69752389 0.0096960068
-0.34517831 0.69764578 0.0096845031
-0.33502617 0.69764584 0.0096845031
-0.32487351 0.69764578 0.0096845031
-0.31516874 0.69776762 0.0096729994
-0.30504483 0.69752389 0.0096960068
-0.29486227 0.69776767 0.0096729994
-0.28474182 0.69752389 0.0096960068
-0.2750352 0.69764566 0.0096845031
-0.26488292 0.69764584 0.0096845031
-0.25473031 0.69764578 0.0096845031
-0.24501926 0.69776767 0.0096729994
-0.23490793 0.69752389 0.0096960068
-0.22519651 0.69764572 0.0096845031
-0.21504419 0.69764572 0.0096845031
-0.20489199 0.69764578 0.0096845031
-0.19517636 0.69776762 0.0096729994
-0.18507355 0.69752389 0.0096960068
-0.17535801 0.69764572 0.0096845031
-0.16520576 0.69764572 0.0096845031
-0.15505341 0.69764578 0.0096845031
-0.14490092 0.69764572 0.0096845031
-0.1347488 0.69764578 0.0096845031
-0.12502682 0.69776767 0.0096729994
-0.11493664 0.69752389 0.0096960068
-0.1052148 0.69764578 0.0096845031
-0.095062584 0.69764572 0.0096845031
-0.084910102 0.69764578 0.0096845031
-0.074757755 0.69764572 0.0096845031
-0.064605705 0.69764578 0.0096845031
-0.055376299 0.69764578 0.0096845031
-0.045223754 0.69764584 0.0096845031
-0.0350716 0.69764578 0.0096845031
-0.024919415 0.69764572 0.0096845031
-0.0147669 0.69764578 0.0096845031
-0.0055375001 0.69764572 0.0096845031
0.0046145832 0.69764572 0.0096845031
0.014766899 0.69764578 0.0096845031
0.024919415 0.69764572 0.0096845031
0.0350716 0.69764578 0.0096845031
0.045223754 0.69764572 0.0096845031
0.055376299 0.69764578 0.0096845031
0.064605698 0.69764578 0.0096845031
0.074757747 0.69764572 0.0096845031
0.084910102 0.69764578 0.0096845031
0.095062584 0.69764572 0.0096845031
0.1052148 0.69764578 0.0096845031
0.11493664 0.69752389 0.0096960068
0.12502682 0.69776767 0.0096729994
0.13474879 0.69764578 0.0096845031
0.14490092 0.69764572 0.0096845031
0.15505341 0.69764578 0.0096845031
0.16520573 0.69764584 0.0096845031
0.175358 0.69764578 0.0096845031
0.18507355 0.69752389 0.0096960068
0.19517636 0.69776767 0.0096729994
0.20489199 0.69764572 0.0096845031
0.21504419 0.69764572 0.0096845031
0.22519653 0.69764578 0.0096845031
0.234908 0.69752389 0.0096960068
0.24501926 0.69776762 0.0096729994
0.25473031 0.69764578 0.0096845031
0.26488301 0.69764572 0.0096845031
0.2750352 0.69764578 0.0096845031
0.28474182 0.69752389 0.0096960068
0.29486227 0.69776767 0.0096729994
0.3050448 0.69752389 0.0096960068
0.31516874 0.69776767 0.0096729994
0.32487351 0.69764578 0.0096845031
0.33502617 0.69764584 0.0096845031
0.34517834 0.69764578 0.0096845031
0.35487884 0.69752389 0.0096960068
0.36501172 0.69776767 0.0096729994
0.3751817 0.69752389 0.0096960068
0.38531819 0.69776767 0.0096729994
0.3950167 0.69764578 0.0096845031
0.40471315 0.69752389 0.0096960068
0.41485491 0.69776767 0.0096729994
0.42501563 0.69752389 0.0096960068
0.4351612 0.69776762 0.0096729994
0.44531873 0.69752389 0.0096960068
0.45500678 0.69764578 0.0096845031
0.46469772 0.69776767 0.0096729994
0.470698 0.69764566 0.0096845031
-0.47310403 0.70613039 0.0088821007
-0.46467867 0.70586616 0.0089070499
-0.45492983 0.70574284 0.0089187175
-0.44518375 0.70561939 0.0089303851
-0.43496597 0.7058661 0.0089070499
-0.42476004 0.70561951 0.0089303851
-0.41500807 0.70574296 0.0089185387
-0.4052535 0.7058664 0.0089066923
-0.39505291 0.70561993 0.0089300275
-0.38505927 0.70567828 0.0089244703
-0.3750861 0.70574373 0.0089183291
-0.36511126 0.70580763 0.0089122821
-0.35511377 0.70586658 0.0089066923
-0.34492204 0.70561987 0.0089300275
-0.33492616 0.70567828 0.0089244703
-0.32495046 0.70574355 0.0089183291
-0.31497338 0.70580757 0.0089122821
-0.30521768 0.70567828 0.0089244703
-0.29524061 0.70574373 0.0089183291
-0.28502795 0.7057426 0.0089183906
-0.27481511 0.70574373 0.0089183291
-0.26483572 0.70580757 0.0089122821
-0.25508478 0.70567834 0.0089244703
-0.24510507 0.70574361 0.0089183291
-0.23489238 0.70574284 0.0089183906
-0.22491364 0.70554954 0.0089366604
-0.21492805 0.70598996 0.0088950582
-0.20495155 0.70567828 0.0089244703
-0.19520798 0.70554954 0.0089366604
-0.18521294 0.7059899 0.0088950582
-0.17501958 0.70549643 0.0089416616
-0.16501877 0.70593733 0.0089000268
-0.15504731 0.70574278 0.0089183906
-0.14507963 0.70554972 0.0089366604
-0.13506831 0.7059899 0.0088950582
-0.12489304 0.70549655 0.0089416616
-0.1151258 0.70574307 0.0089183599
-0.10512786 0.70591992 0.0089016501
-0.094951287 0.70554954 0.0089366604
-0.085162006 0.70593727 0.0089000268
-0.07499104 0.70556599 0.0089350995
-0.064990498 0.70574307 0.0089183599
-0.054985996 0.70591992 0.0089016501
-0.044822861 0.70554972 0.0089366604
-0.035280399 0.70574319 0.0089183599
-0.025067667 0.70574307 0.0089183599
-0.014854851 0.70574307 0.0089183599
-0.0055705998 0.70574325 0.0089183599
0.0046421667 0.70574313 0.0089183599
0.01485485 0.70574319 0.0089183599
0.02506767 0.70574331 0.0089183599
0.035280395 0.70574319 0.0089183599
0.044822857 0.70554954 0.0089366604
0.054986 0.70591992 0.0089016501
0.064990506 0.70574319 0.0089183599
0.07499104 0.70556599 0.0089350995
0.085161999 0.70593727 0.0089000268
0.094951287 0.70554972 0.0089366604
0.10512787 0.70592004 0.0089016501
0.1151258 0.70574319 0.0089183599
0.12489304 0.70549655 0.0089416616
0.13506834 0.7059899 0.0088950582
0.14507961 0.70554954 0.0089366604
0.15504733 0.70574278 0.0089183906
0.16501877 0.70593727 0.0089000268
0.17501959 0.70549637 0.0089416616
0.18521295 0.70598978 0.0088950582
0.19520803 0.70554972 0.0089366604
0.20495158 0.70567834 0.0089244703
0.21492805 0.70598984 0.0088950582
0.22491364 0.70554972 0.0089366604
0.23489238 0.70574278 0.0089183906
0.24510503 0.70574367 0.0089183291
0.25508475 0.70567846 0.0089244703
0.26483572 0.70580763 0.0089122821
0.27481511 0.70574367 0.0089183291
0.28502795 0.70574278 0.0089183906
0.29524067 0.70574379 0.0089183291
0.30521777 0.70567828 0.0089244703
0.31497341 0.70580757 0.0089122821
0.32495046 0.70574373 0.0089183291
0.33492616 0.70567834 0.0089244703
0.34492204 0.70561987 0.0089300275
0.35511371 0.70586652 0.0089066923
0.36511129 0.70580757 0.0089122821
0.37508604 0.70574367 0.0089183291
0.3850593 0.70567828 0.0089244703
0.39505291 0.70561975 0.0089300275
0.40525344 0.70586652 0.0089066923
0.41500813 0.70574319 0.0089183599
0.42476007 0.70561987 0.0089300275
0.434966 0.70586652 0.0089066923
0.44518378 0.70561987 0.0089300275
0.45492998 0.70574319 0.0089183599
0.46467879 0.70586658 0.0089066923
0.47220254 0.70628583 0.0088670971
-0.47464958 0.7154752 0.0079982616
-0.46496782 0.71530318 0.0080145402
-0.45530701 0.71530294 0.0080145672
-0.44502279 0.71530336 0.0080145141
-0.43473864 0.71530288 0.0080145672
-0.42507762 0.71530318 0.0080145402
-0.41510525 0.71530348 0.0080145141
-0.40482101 0.71530288 0.0080145672
-0.39483881 0.71513128 0.0080307908
-0.38488582 0.7154752 0.0079982616
-0.37490341 0.715303 0.0080145672
-0.364925 0.71513128 0.0080307908
-0.35496441 0.7154752 0.0079982616
-0.34498596 0.71530288 0.0080145672
-0.33501112 0.71513128 0.0080307908
-0.32504305 0.71547526 0.0079982616
-0.31506842 0.71530294 0.0080145672
-0.30509728 0.71513128 0.0080307908
-0.29512173 0.7154752 0.0079982616
-0.28515077 0.715303 0.0080145672
-0.27518338 0.71513128 0.0080307908
-0.26520053 0.71547526 0.0079982616
-0.25492889 0.71514118 0.0080298604
-0.24495021 0.71530312 0.0080145402
-0.2352791 0.71547532 0.0079982616
-0.22501476 0.71514136 0.0080298604
-0.21503259 0.71530318 0.0080145402
-0.20504701 0.71546501 0.0079992451
-0.19478989 0.7151314 0.0080307908
-0.18511507 0.71530312 0.0080145402
-0.17512581 0.71546495 0.0079992451
-0.16487606 0.71513128 0.0080307908
-0.15519746 0.71530312 0.0080145402
-0.14520475 0.71546501 0.0079992451
-0.13496217 0.71513134 0.0080307908
-0.12528001 0.71530318 0.0080145402
-0.11499567 0.71530318 0.0080145402
-0.10471147 0.71530312 0.0080145402
-0.095362335 0.71530324 0.0080145402
-0.085078105 0.71530318 0.0080145402
-0.074794002 0.71530312 0.0080145402
-0.065444738 0.71530312 0.0080145402
-0.055160504 0.71530318 0.0080145402
-0.044876467 0.71530318 0.0080145402
-0.035527069 0.71530312 0.0080145402
-0.025242999 0.71530324 0.0080145402
-0.014958864 0.71530318 0.0080145402
-0.0056095337 0.71530318 0.0080145402
0.0046746111 0.71530318 0.0080145402
0.014958867 0.71530312 0.0080145402
0.025243001 0.71530318 0.0080145402
0.035527065 0.71530318 0.0080145402
0.044876467 0.71530312 0.0080145402
0.0551605 0.71530318 0.0080145402
0.065444738 0.71530318 0.0080145402
0.074794009 0.71530318 0.0080145402
0.085078113 0.71530318 0.0080145402
0.095362335 0.71530318 0.0080145402
0.10471147 0.71530312 0.0080145402
0.11499567 0.71530318 0.0080145402
0.12527999 0.71530312 0.0080145402
0.13496219 0.7151314 0.0080307908
0.14520477 0.71546495 0.0079992451
0.15519746 0.71530318 0.0080145402
0.16487606 0.71513128 0.0080307908
0.17512582 0.71546495 0.0079992451
0.18511507 0.71530312 0.0080145402
0.19478989 0.71513128 0.0080307908
0.20504701 0.71546495 0.0079992451
0.21503259 0.71530318 0.0080145402
0.22501478 0.71514118 0.0080298604
0.23527907 0.7154752 0.0079982616
0.24495021 0.71530312 0.0080145402
0.25492889 0.71514118 0.0080298604
0.2652005 0.71547526 0.0079982616
0.27518338 0.71513128 0.0080307908
0.28515077 0.71530294 0.0080145672
0.29512173 0.7154752 0.0079982616
0.30509728 0.71513128 0.0080307908
0.31506839 0.71530288 0.0080145672
0.32504305 0.7154752 0.0079982616
0.33501112 0.71513128 0.0080307908
0.34498593 0.71530288 0.0080145672
0.35496446 0.7154752 0.0079982616
0.36492497 0.7151314 0.0080307908
0.37490344 0.71530306 0.0080145672
0.38488576 0.7154752 0.0079982616
0.39483884 0.71513128 0.0080307908
0.40482101 0.71530288 0.0080145672
0.41510528 0.71530348 0.0080145141
0.4250778 0.71530318 0.0080145402
0.43473864 0.71530294 0.0080145672
0.44502285 0.71530342 0.0080145141
0.45530695 0.71530288 0.0080145672
0.46496791 0.71530324 0.0080145402
0.47371939 0.71551502 0.0079945046
-0.48174751 0.72593337 0.0070090792
-0.47499034 0.72513044 0.0070850607
-0.4651033 0.72500348 0.0070970654
-0.4552193 0.7248767 0.0071090702
-0.44485921 0.72513044 0.0070850607
-0.43497509 0.72500348 0.0070970654
-0.42509353 0.72487664 0.0071090702
-0.41496044 0.72493684 0.0071032699
-0.40508497 0.72520316 0.007078012
-0.39496812 0.72487676 0.0071088751
-0.38507599 0.72500354 0.0070968866
-0.37518123 0.72513056 0.0070848982
-0.36484233 0.7248767 0.0071088751
-0.35494775 0.72500372 0.0070968866
-0.34529206 0.72493678 0.0071032019
-0.33517638 0.7250042 0.007096854
-0.32505924 0.72506976 0.0070906053
-0.31516519 0.72493702 0.0071032019
-0.30504796 0.72500408 0.007096854
-0.29492965 0.72506994 0.0070906053
-0.28503823 0.72493696 0.0071032019
-0.27491975 0.72500408 0.007096854
-0.26479968 0.72506994 0.0070906053
-0.25491145 0.72493678 0.0071032019
-0.24502589 0.7248047 0.0071157273
-0.2351418 0.72520322 0.007078012
-0.22501959 0.725003 0.0070969192
-0.21490185 0.72480476 0.0071157273
-0.20500901 0.7252031 0.007078012
-0.1951246 0.72506988 0.0070906053
-0.18501486 0.72474998 0.0071208994
-0.17512104 0.72500372 0.0070968866
-0.16522162 0.72525746 0.0070728739
-0.15489204 0.72474998 0.0071208994
-0.1449926 0.7250036 0.0070968866
-0.13508779 0.72525734 0.0070728739
-0.12476922 0.72474998 0.0071208994
-0.11486425 0.7250036 0.0070968866
-0.10519461 0.72520322 0.007078012
-0.094874777 0.72482133 0.0071141203
-0.084735952 0.72500372 0.0070968866
-0.075320855 0.72500366 0.0070968866
-0.064964242 0.72500354 0.0070968866
-0.054607548 0.72500378 0.0070968866
-0.045192651 0.72500384 0.0070968866
-0.034835879 0.72500372 0.0070968866
-0.02447935 0.72500378 0.0070968866
-0.01506405 0.72500372 0.0070968866
-0.0056491001 0.7250036 0.0070968866
0.0047075837 0.72500354 0.0070968866
0.01506405 0.72500378 0.0070968866
0.02447935 0.72500378 0.0070968866
0.034835875 0.72500354 0.0070968866
0.045192651 0.72500372 0.0070968866
0.054607548 0.72500372 0.0070968866
0.064964257 0.72500354 0.0070968866
0.075320862 0.7250036 0.0070968866
0.08473596 0.7250036 0.0070968866
0.094874784 0.72482151 0.0071141203
0.10519461 0.72520328 0.007078012
0.11486427 0.7250036 0.0070968866
0.12476923 0.72475004 0.0071208994
0.13508779 0.7252574 0.0070728739
0.14499262 0.72500372 0.0070968866
0.15489207 0.72474992 0.0071208994
0.16522165 0.72525734 0.0070728739
0.17512101 0.7250036 0.0070968866
0.18501486 0.72474998 0.0071208994
0.19512463 0.72506988 0.0070906053
0.20500901 0.72520322 0.007078012
0.21490183 0.72480464 0.0071157273
0.22501965 0.72500312 0.0070969192
0.23514184 0.7252031 0.007078012
0.24502584 0.72480458 0.0071157273
0.25491142 0.7249369 0.0071032019
0.26479965 0.72506982 0.0070906053
0.27491978 0.7250042 0.007096854
0.28503823 0.7249369 0.0071032019
0.29492968 0.72506988 0.0070906053
0.30504796 0.72500414 0.007096854
0.31516519 0.72493696 0.0071032019
0.32505929 0.72506988 0.0070906053
0.33517638 0.72500426 0.007096854
0.34529203 0.72493696 0.0071032019
0.35494775 0.72500354 0.0070968866
0.36484233 0.72487664 0.0071088751
0.37518132 0.72513038 0.0070848982
0.38507599 0.7250036 0.0070968866
0.39496812 0.72487682 0.0071088751
0.40508497 0.72520328 0.007078012
0.4149605 0.72493708 0.0071032019
0.42509365 0.72487694 0.0071088751
0.43497515 0.72500354 0.0070968866
0.44485924 0.72513038 0.0070848982
0.4552193 0.72487694 0.0071088751
0.46510345 0.7250036 0.0070968866
0.47499037 0.72513056 0.0070848982
0.48113701 0.72779393 0.0068327487
-0.48329282 0.73511869 0.006140071
-0.47503978 0.73483527 0.0061669238
-0.46524191 0.73483551 0.0061668954
-0.45512789 0.73483568 0.0061668684
-0.44501385 0.73483557 0.0061668954
-0.43521601 0.73483527 0.0061669238
-0.42508838 0.73465872 0.0061836317
-0.41500175 0.73501265 0.0061501302
-0.40487409 0.73483527 0.0061669238
-0.3950763 0.73483557 0.0061668954
-0.38496205 0.7348358 0.0061668684
-0.37484819 0.73483551 0.0061668954
-0.36505032 0.73483527 0.0061669238
-0.35493144 0.73465878 0.0061836317
-0.34482712 0.73501247 0.0061501302
-0.33502448 0.73483545 0.0061668954
-0.32522643 0.73483527 0.0061669238
-0.31511268 0.73465896 0.0061836317
-0.30499825 0.73501253 0.0061501302
-0.2948845 0.73483527 0.0061669238
-0.2847746 0.73465878 0.0061836317
-0.27497393 0.73483551 0.0061668954
-0.26516935 0.73501247 0.0061501302
-0.25506076 0.73483521 0.0061669238
-0.24495588 0.73465872 0.0061836317
-0.23515001 0.73483551 0.0061668954
-0.2253405 0.73501247 0.0061501302
-0.21493317 0.73466891 0.0061826743
-0.20480807 0.73483551 0.0061668954
-0.19499473 0.73501247 0.0061501302
-0.18489505 0.73483527 0.0061669238
-0.17479886 0.73465872 0.0061836317
-0.16498433 0.73483545 0.0061668954
-0.15516594 0.73501241 0.0061501302
-0.14477564 0.73466891 0.0061826743
-0.13464239 0.73483557 0.0061668954
-0.1251606 0.73483557 0.0061668954
-0.11533699 0.73501253 0.0061501302
-0.10495666 0.73466897 0.0061826743
-0.094818659 0.73483551 0.0061668954
-0.085336663 0.73483557 0.0061668954
-0.074906677 0.73483545 0.0061668954
-0.064476661 0.73483557 0.0061668954
-0.054994736 0.73483551 0.0061668954
-0.045512933 0.73483551 0.0061668954
-0.035082947 0.73483551 0.0061668954
-0.024652736 0.73483557 0.0061668954
-0.015171 0.73483557 0.0061668954
-0.0056891339 0.73483551 0.0061668954
0.0047409441 0.73483551 0.0061668954
0.015171002 0.73483551 0.0061668954
0.024652733 0.73483557 0.0061668954
0.035082947 0.73483551 0.0061668954
0.045512933 0.73483557 0.0061668954
0.054994728 0.73483568 0.0061668954
0.064476669 0.73483551 0.0061668954
0.07490667 0.73483551 0.0061668954
0.085336655 0.73483551 0.0061668954
0.094818674 0.73483557 0.0061668954
0.10495665 0.73466897 0.0061826743
0.115337 0.73501253 0.0061501302
0.1251606 0.73483551 0.0061668954
0.13464239 0.73483545 0.0061668954
0.14477566 0.73466903 0.0061826743
0.15516594 0.73501253 0.0061501302
0.16498433 0.73483545 0.0061668954
0.17479889 0.73465872 0.0061836317
0.18489505 0.73483527 0.0061669238
0.19499475 0.73501253 0.0061501302
0.20480806 0.73483545 0.0061668954
0.21493317 0.73466897 0.0061826743
0.2253405 0.73501241 0.0061501302
0.23515001 0.73483545 0.0061668954
0.24495593 0.73465872 0.0061836317
0.25506076 0.73483527 0.0061669238
0.26516941 0.73501247 0.0061501302
0.27497393 0.73483551 0.0061668954
0.28477463 0.73465884 0.0061836317
0.29488447 0.73483545 0.0061669238
0.30499831 0.73501247 0.0061501302
0.31511271 0.73465878 0.0061836317
0.32522649 0.73483527 0.0061669238
0.33502445 0.73483545 0.0061668954
0.34482712 0.73501253 0.0061501302
0.3549315 0.73465872 0.0061836317
0.36505032 0.73483527 0.0061669238
0.37484819 0.73483557 0.0061668954
0.38496211 0.7348358 0.0061668684
0.39507627 0.73483557 0.0061668954
0.40487406 0.73483533 0.0061669238
0.41500175 0.73501265 0.0061501302
0.42508841 0.73465878 0.0061836317
0.43521601 0.73483521 0.0061669238
0.445014 0.73483557 0.0061668954
0.45512795 0.73483574 0.0061668684
0.46524188 0.73483557 0.0061668954
0.47503978 0.73483521 0.0061669238
0.48235914 0.73524004 0.0061285752
-0.490439 0.7491259 0.0048161149
-0.48489437 0.74504071 0.005201967
-0.47509 0.7446838 0.005235672
-0.4650639 0.74481428 0.0052233636
-0.45503524 0.74494475 0.0052110553
-0.44500893 0.74481428 0.0052233636
-0.43498534 0.7446838 0.005235672
-0.42495561 0.74481428 0.0052233636
-0.4151586 0.74474573 0.005229794
-0.40514237 0.74501967 0.0052037663
-0.39488065 0.74468386 0.0052355095
-0.3848474 0.7448144 0.0052231848
-0.37505227 0.74474585 0.0052296915
-0.36502796 0.74501979 0.0052037663
-0.35500962 0.74460971 0.0052425521
-0.34498343 0.7448824 0.0052167289
-0.33494592 0.74474573 0.0052296915
-0.32516271 0.74481452 0.0052231848
-0.31513569 0.74481493 0.0052231359
-0.30487278 0.7448824 0.0052167289
-0.29483971 0.74474585 0.0052296915
-0.28505442 0.74481434 0.0052231848
-0.27502725 0.74481493 0.0052231359
-0.26476276 0.74488246 0.0052167289
-0.25497252 0.74481434 0.0052231848
-0.24518403 0.74474591 0.0052296915
-0.23515819 0.74460971 0.0052425521
-0.22513005 0.74501967 0.0052037663
-0.21510233 0.74488246 0.0052167289
-0.20507753 0.74474585 0.0052296915
-0.19505562 0.74460959 0.0052425521
-0.18501589 0.74501979 0.0052037663
-0.17499213 0.7448824 0.0052167289
-0.16497111 0.74474591 0.0052296915
-0.15495321 0.74460953 0.0052425521
-0.1451539 0.74481434 0.0052231848
-0.13510773 0.74507529 0.0051984866
-0.1248648 0.74474573 0.0052296915
-0.1148507 0.74460959 0.0052425521
-0.10504565 0.74481446 0.0052231848
-0.09523619 0.74501979 0.0052037663
-0.084990233 0.74481386 0.0052232337
-0.074748196 0.74460959 0.0052425521
-0.064937398 0.74481452 0.0052231848
-0.055387698 0.74481452 0.0052231848
-0.045096043 0.74500132 0.0052055018
-0.034645528 0.74460965 0.0052425521
-0.024829002 0.74481434 0.0052231848
-0.0152795 0.74481434 0.0052231848
-0.0057297503 0.74481434 0.0052231848
0.0047747917 0.7448144 0.0052231848
0.0152795 0.74481446 0.0052231848
0.024829 0.7448144 0.0052231848
0.034645528 0.74460953 0.0052425521
0.045096043 0.74500144 0.0052055018
0.055387694 0.74481452 0.0052231848
0.06493739 0.74481434 0.0052231848
0.074748196 0.74460959 0.0052425521
0.084990233 0.74481392 0.0052232337
0.09523619 0.74501973 0.0052037663
0.10504565 0.74481434 0.0052231848
0.11485071 0.74460965 0.0052425521
0.12486479 0.74474573 0.0052296915
0.13510774 0.7450754 0.0051984866
0.14515391 0.74481446 0.0052231848
0.15495318 0.74460959 0.0052425521
0.16497108 0.74474579 0.0052296915
0.17499216 0.74488246 0.0052167289
0.18501589 0.74501967 0.0052037663
0.19505562 0.74460965 0.0052425521
0.20507753 0.74474591 0.0052296915
0.21510236 0.74488246 0.0052167289
0.22513008 0.74501967 0.0052037663
0.23515818 0.74460959 0.0052425521
0.24518406 0.74474573 0.0052296915
0.25497252 0.74481452 0.0052231848
0.26476276 0.7448824 0.0052167289
0.27502725 0.74481487 0.0052231359
0.28505442 0.7448144 0.0052231848
0.29483971 0.74474579 0.0052296915
0.30487278 0.74488246 0.0052167289
0.31513569 0.74481493 0.0052231359
0.32516271 0.74481446 0.0052231848
0.33494598 0.74474579 0.0052296915
0.34498343 0.7448824 0.0052167289
0.35500962 0.74460965 0.0052425521
0.36502796 0.74501967 0.0052037663
0.37505221 0.74474573 0.0052296915
0.38484734 0.74481452 0.0052231848
0.39488065 0.74468398 0.0052355095
0.40514237 0.74501967 0.0052037663
0.41515863 0.74474573 0.0052296915
0.42495567 0.74481446 0.0052231848
0.43498537 0.74468386 0.0052355095
0.44500884 0.74481446 0.0052231848
0.45503548 0.74494493 0.0052108602
0.46506396 0.74481434 0.0052231848
0.47508994 0.74468386 0.0052355095
0.48422951 0.74535263 0.0051722787
-0.49188843 0.755512 0.0042115212
-0.48540166 0.75493008 0.0042666793
-0.47514209 0.75493026 0.004266683
-0.46488255 0.75492996 0.0042666793
-0.45494369 0.75492984 0.0042666756
-0.44500482 0.7549302 0.0042666793
-0.43505079 0.75474817 0.0042839162
-0.4248215 0.75511211 0.0042494461
-0.41486752 0.75493026 0.0042665242
-0.40492859 0.7549302 0.0042664334
-0.3949897 0.75493038 0.0042664208
-0.38504213 0.75474858 0.0042836256
-0.37479994 0.75511247 0.004249204
-0.36485249 0.75493038 0.0042664208
-0.3549135 0.75493008 0.0042664334
-0.34497458 0.75493032 0.0042664208
-0.33503339 0.75474852 0.0042836256
-0.32509825 0.75493032 0.0042664208
-0.31515899 0.75511241 0.004249204
-0.30489847 0.75493008 0.0042664334
-0.29495937 0.75493044 0.0042664208
-0.28502482 0.75474852 0.0042836256
-0.27508312 0.75493038 0.0042664208
-0.26513743 0.75511253 0.004249204
-0.25488338 0.75493014 0.0042664334
-0.24494441 0.75493032 0.0042664208
-0.23501606 0.75474852 0.0042836256
-0.225068 0.75493032 0.0042664208
-0.21511595 0.75511247 0.004249204
-0.20486826 0.75493008 0.0042664334
-0.19462444 0.75474858 0.0042836256
-0.18467113 0.75493032 0.0042664208
-0.17505294 0.75493032 0.0042664208
-0.16543445 0.75493044 0.0042664208
-0.15515555 0.7551015 0.0042502284
-0.14461574 0.75474846 0.0042836256
-0.134656 0.75493038 0.0042664208
-0.12503774 0.75493038 0.0042664208
-0.1154194 0.75493032 0.0042664208
-0.10513436 0.7551015 0.0042502284
-0.094607115 0.75474852 0.0042836256
-0.084640868 0.75493032 0.0042664208
-0.075022668 0.75493038 0.0042664208
-0.0654044 0.75493038 0.0042664208
-0.055113174 0.7551015 0.0042502284
-0.044598438 0.75474846 0.0042836256
-0.034625731 0.75493044 0.0042664208
-0.025007533 0.75493032 0.0042664208
-0.015389333 0.75493038 0.0042664208
-0.0057710004 0.75493032 0.0042664208
0.0048091668 0.75493038 0.0042664208
0.015389333 0.75493038 0.0042664208
0.025007535 0.75493044 0.0042664208
0.034625731 0.75493038 0.0042664208
0.044598434 0.75474852 0.0042836256
0.055113178 0.75510156 0.0042502284
0.0654044 0.75493032 0.0042664208
0.075022675 0.75493032 0.0042664208
0.084640868 0.75493038 0.0042664208
0.094607122 0.75474858 0.0042836256
0.10513436 0.7551015 0.0042502284
0.1154194 0.75493032 0.0042664208
0.12503773 0.75493032 0.0042664208
0.134656 0.75493044 0.0042664208
0.14461574 0.75474852 0.0042836256
0.15515552 0.75510162 0.0042502284
0.16543446 0.75493026 0.0042664208
0.17505293 0.75493032 0.0042664208
0.18467115 0.75493032 0.0042664208
0.19462447 0.7547484 0.0042836256
0.20486824 0.7549302 0.0042664334
0.21511593 0.75511253 0.004249204
0.225068 0.75493032 0.0042664208
0.23501606 0.75474852 0.0042836256
0.24494439 0.75493032 0.0042664208
0.25488338 0.75493008 0.0042664334
0.26513743 0.75511241 0.004249204
0.27508312 0.75493038 0.0042664208
0.28502482 0.75474846 0.0042836256
0.2949594 0.75493032 0.0042664208
0.30489847 0.75493008 0.0042664334
0.31515902 0.75511241 0.004249204
0.32509825 0.75493038 0.0042664208
0.33503336 0.75474852 0.0042836256
0.34497461 0.75493032 0.0042664208
0.35491353 0.75493002 0.0042664334
0.36485246 0.75493032 0.0042664208
0.37479994 0.75511247 0.004249204
0.3850421 0.75474852 0.0042836256
0.39498967 0.75493038 0.0042664208
0.40492862 0.75493008 0.0042664334
0.41486758 0.75493044 0.0042664208
0.42482159 0.75511247 0.004249204
0.43505082 0.75474846 0.0042836256
0.44500479 0.75493032 0.0042664208
0.45494372 0.7549302 0.0042664334
0.46488267 0.75493038 0.0042664208
0.47514215 0.75493062 0.0042664092
0.48540169 0.75493032 0.0042664208
0.4910365 0.75638509 0.0041287839
-0.49368 0.76562178 0.0032553631
-0.48488405 0.76533395 0.0032826094
-0.47470945 0.76519966 0.0032952875
-0.46502146 0.76519966 0.0032952875
-0.45508245 0.76498884 0.0033152103
-0.44493049 0.7652697 0.0032886465
-0.43498963 0.76519954 0.0032952875
-0.42505032 0.76512921 0.0033019809
-0.41489053 0.7654109 0.003275312
-0.40495595 0.76519978 0.0032952875
-0.39502567 0.76498878 0.0033152103
-0.38486195 0.76526976 0.0032886465
-0.37492409 0.76519984 0.0032952875
-0.36498764 0.76512921 0.0033019809
-0.35506421 0.76519978 0.0032952875
-0.34512657 0.76541108 0.003275312
-0.33496884 0.76498884 0.0033152103
-0.32479337 0.76526976 0.0032886465
-0.31485832 0.76519972 0.0032952875
-0.30492491 0.76512909 0.0033019809
-0.29499844 0.76519972 0.0032952875
-0.28506145 0.76498896 0.0033152103
-0.27490261 0.76541084 0.003275312
-0.26496559 0.76519966 0.0032952875
-0.25503621 0.76526988 0.0032886465
-0.24486229 0.76512897 0.0033019809
-0.23493281 0.76519966 0.0032952875
-0.22500463 0.76498902 0.0033152103
-0.21507379 0.76519948 0.0032952875
-0.20513861 0.7654109 0.003275312
-0.19496757 0.76526958 0.0032886465
-0.18479955 0.76512897 0.0033019809
-0.17486715 0.76519954 0.0032952875
-0.16494781 0.76498878 0.0033152103
-0.1550082 0.76519978 0.0032952875
-0.14532015 0.76519954 0.0032952875
-0.13537461 0.76541084 0.003275312
-0.1249739 0.76519924 0.0032953375
-0.11457762 0.76498902 0.0033152103
-0.10463054 0.76519978 0.0032952875
-0.094942495 0.76519972 0.0032952875
-0.085254505 0.76519966 0.0032952875
-0.0755665 0.76519954 0.0032952875
-0.065128393 0.76539224 0.0032770971
-0.054520767 0.76498884 0.0033152103
-0.044564851 0.76519948 0.0032952875
-0.03487685 0.76519966 0.0032952875
-0.025188852 0.76519972 0.0032952875
-0.015500851 0.76519966 0.0032952875
-0.0058128508 0.76519966 0.0032952875
0.0048440411 0.76519966 0.0032952875
0.015500849 0.7651996 0.0032952875
0.025188848 0.76519954 0.0032952875
0.034876853 0.76519966 0.0032952875
0.044564851 0.76519948 0.0032952875
0.05452076 0.76498902 0.0033152103
0.065128393 0.76539195 0.0032770971
0.075566508 0.7651996 0.0032952875
0.085254505 0.7651996 0.0032952875
0.094942495 0.76519978 0.0032952875
0.10463054 0.76519966 0.0032952875
0.11457761 0.76498896 0.0033152103
0.12497392 0.76519895 0.0032953375
0.13537462 0.76541084 0.003275312
0.14532015 0.76519984 0.0032952875
0.1550082 0.76519966 0.0032952875
0.16494782 0.76498902 0.0033152103
0.17486714 0.76519966 0.0032952875
0.18479954 0.76512897 0.0033019809
0.19496757 0.7652697 0.0032886465
0.20513864 0.76541102 0.003275312
0.21507379 0.7651996 0.0032952875
0.2250046 0.76498878 0.0033152103
0.23493278 0.76519978 0.0032952875
0.24486229 0.76512921 0.0033019809
0.25503621 0.76526958 0.0032886465
0.26496559 0.76519966 0.0032952875
0.27490267 0.7654112 0.003275312
0.28506142 0.76498896 0.0033152103
0.29499847 0.76519966 0.0032952875
0.30492491 0.76512897 0.0033019809
0.31485832 0.76519978 0.0032952875
0.32479334 0.7652697 0.0032886465
0.33496886 0.76498884 0.0033152103
0.34512657 0.7654109 0.003275312
0.35506409 0.76519978 0.0032952875
0.36498761 0.76512879 0.0033019809
0.37492403 0.76519966 0.0032952875
0.38486195 0.76526958 0.0032886465
0.39502567 0.76498896 0.0033152103
0.40495595 0.76519966 0.0032952875
0.41489062 0.76541108 0.003275312
0.42505029 0.76512909 0.0033019809
0.43498969 0.76519966 0.0032952875
0.44493052 0.76526976 0.0032886465
0.45508245 0.76498878 0.0033152103
0.46502161 0.76519966 0.0032952875
0.47470966 0.76519954 0.0032952875
0.48488405 0.76533389 0.0032826094
0.4927415 0.76579058 0.0032393932
-0.50068802 0.77861154 0.0020265579
-0.49509016 0.77561194 0.0023103554
-0.48500618 0.77561158 0.0023103841
-0.4749223 0.77561194 0.0023103554
-0.46516353 0.77561194 0.0023103554
-0.45540488 0.77561194 0.0023103554
-0.44499552 0.77561229 0.0023103287
-0.43458608 0.77561188 0.0023103554
-0.42482743 0.775612 0.0023103554
-0.41506889 0.77561212 0.0023103554
-0.4049848 0.7756117 0.0023103841
-0.39490077 0.77561188 0.0023103554
-0.38514218 0.77561188 0.0023103554
-0.37505063 0.7754249 0.0023280643
-0.36497554 0.77561212 0.0023103554
-0.35489649 0.77579939 0.0022926182
-0.34480613 0.77561212 0.0023103554
-0.33504739 0.77561188 0.0023103554
-0.32496348 0.77561158 0.0023103841
-0.31487951 0.77561188 0.0023103554
-0.30512077 0.77561182 0.0023103554
-0.29503971 0.77542472 0.0023280643
-0.28495416 0.77561194 0.0023103554
-0.27519548 0.77561188 0.0023103554
-0.26510465 0.77579945 0.0022926182
-0.25502622 0.77561188 0.0023103554
-0.24494205 0.77561176 0.0023103841
-0.23485807 0.77561212 0.0023103554
-0.22478613 0.77542484 0.0023280643
-0.21469145 0.77561188 0.0023103554
-0.20493273 0.77561194 0.0023103554
-0.19517413 0.77561194 0.0023103554
-0.1854154 0.77561194 0.0023103554
-0.17531289 0.77579939 0.0022926182
-0.16492081 0.77561164 0.0023103841
-0.1548368 0.77561206 0.0023103554
-0.14477514 0.77542466 0.0023280643
-0.13467006 0.77561194 0.0023103554
-0.12491141 0.77561194 0.0023103554
-0.11515267 0.77561188 0.0023103554
-0.105394 0.77561212 0.0023103554
-0.095635332 0.77561212 0.0023103554
-0.085197523 0.77578825 0.0022936885
-0.074521698 0.77542472 0.0023280643
-0.064407535 0.77561194 0.0023103554
-0.054648798 0.77561194 0.0023103554
-0.044889998 0.77561206 0.0023103554
-0.035131268 0.77561194 0.0023103554
-0.0253726 0.77561212 0.0023103554
-0.015613932 0.775612 0.0023103554
-0.0058552003 0.77561212 0.0023103554
0.0048793331 0.77561188 0.0023103554
0.015613931 0.77561194 0.0023103554
0.0253726 0.77561188 0.0023103554
0.035131268 0.77561194 0.0023103554
0.044889998 0.77561194 0.0023103554
0.054648798 0.77561194 0.0023103554
0.064407535 0.77561194 0.0023103554
0.074521683 0.77542466 0.0023280643
0.085197531 0.77578831 0.0022936885
0.095635332 0.77561194 0.0023103554
0.105394 0.77561188 0.0023103554
0.11515268 0.77561212 0.0023103554
0.1249114 0.77561188 0.0023103554
0.13467006 0.77561194 0.0023103554
0.14477512 0.77542472 0.0023280643
0.15483682 0.77561188 0.0023103554
0.16492082 0.77561188 0.0023103841
0.17531288 0.77579951 0.0022926182
0.1854154 0.77561212 0.0023103554
0.19517413 0.77561212 0.0023103554
0.20493272 0.77561194 0.0023103554
0.21469146 0.77561194 0.0023103554
0.22478615 0.77542466 0.0023280643
0.23485805 0.775612 0.0023103554
0.24494207 0.77561158 0.0023103841
0.25502622 0.77561206 0.0023103554
0.26510468 0.77579933 0.0022926182
0.27519548 0.77561194 0.0023103554
0.28495419 0.77561212 0.0023103554
0.29503968 0.77542484 0.0023280643
0.30512074 0.77561212 0.0023103554
0.31487948 0.77561188 0.0023103554
0.32496348 0.77561182 0.0023103841
0.33504739 0.77561182 0.0023103554
0.34480616 0.77561188 0.0023103554
0.35489649 0.77579939 0.0022926182
0.36497551 0.77561188 0.0023103554
0.3750506 0.77542484 0.0023280643
0.38514221 0.77561194 0.0023103554
0.3949008 0.77561212 0.0023103554
0.40498483 0.77561182 0.0023103841
0.41506881 0.77561182 0.0023103554
0.42482755 0.77561212 0.0023103554
0.43458617 0.77561212 0.0023103554
0.44499564 0.77561218 0.0023103287
0.45540485 0.77561212 0.0023103554
0.46516353 0.77561194 0.0023103554
0.47492233 0.77561188 0.0023103554
0.4850063 0.77561188 0.0023103841
0.49446961 0.77584279 0.002288525
-0.50221574 0.78526837 0.0013970971
-0.49524367 0.78485167 0.0014365241
-0.48480412 0.78447223 0.0014724545
-0.474639 0.78466171 0.0014545122
-0.46481866 0.78466171 0.0014545122
-0.45499846 0.78466171 0.0014545122
-0.44517842 0.78466183 0.0014545122
-0.43503103 0.78466147 0.0014545582
-0.42488334 0.78466183 0.0014545122
-0.41506347 0.78466159 0.0014545122
-0.40524334 0.78466159 0.0014545122
-0.39508575 0.78447223 0.0014724545
-0.38494968 0.78466171 0.0014545122
-0.37480965 0.78485161 0.0014365241
-0.36465314 0.78466171 0.0014545122
-0.35483328 0.78466171 0.0014545122
-0.34501302 0.78466183 0.0014545122
-0.33519286 0.78466171 0.0014545122
-0.32504553 0.78466141 0.0014545582
-0.31489798 0.78466171 0.0014545122
-0.305078 0.78466171 0.0014545122
-0.29493305 0.78447217 0.0014724545
-0.28478405 0.78466171 0.0014545122
-0.27496395 0.78466183 0.0014545122
-0.26514393 0.78466183 0.0014545122
-0.25532365 0.78466159 0.0014545122
-0.24516693 0.78485161 0.0014365241
-0.23502739 0.78466183 0.0014545122
-0.22520749 0.78466183 0.0014545122
-0.21505986 0.78466159 0.0014545582
-0.20491219 0.78466171 0.0014545122
-0.19478074 0.78447217 0.0014724545
-0.18461867 0.78466171 0.0014545122
-0.17479859 0.78466183 0.0014545122
-0.16497846 0.78466183 0.0014545122
-0.15515833 0.78466171 0.0014545122
-0.14533819 0.78466171 0.0014545122
-0.13551821 0.78466171 0.0014545122
-0.12534519 0.78485161 0.0014365241
-0.11522166 0.78466159 0.0014545122
-0.10507406 0.78466147 0.0014545582
-0.094628498 0.78447217 0.0014724545
-0.084453203 0.78466171 0.0014545122
-0.074633196 0.78466183 0.0014545122
-0.064813003 0.78466183 0.0014545122
-0.054992866 0.78466171 0.0014545122
-0.045172803 0.78466171 0.0014545122
-0.035352331 0.78466171 0.0014545122
-0.025532333 0.78466171 0.0014545122
-0.015712069 0.78466183 0.0014545122
-0.0058921333 0.78466171 0.0014545122
0.004910111 0.78466171 0.0014545122
0.015712067 0.78466159 0.0014545122
0.025532335 0.78466183 0.0014545122
0.035352334 0.78466159 0.0014545122
0.045172796 0.78466171 0.0014545122
0.054992869 0.78466171 0.0014545122
0.064812995 0.78466171 0.0014545122
0.074633196 0.78466189 0.0014545122
0.084453195 0.78466171 0.0014545122
0.094628498 0.78447223 0.0014724545
0.10507406 0.78466153 0.0014545582
0.11522165 0.78466183 0.0014545122
0.12534519 0.78485161 0.0014365241
0.13551821 0.78466183 0.0014545122
0.14533821 0.78466183 0.0014545122
0.15515833 0.78466171 0.0014545122
0.16497846 0.78466159 0.0014545122
0.17479859 0.78466183 0.0014545122
0.18461868 0.78466183 0.0014545122
0.19478074 0.78447217 0.0014724545
0.2049122 0.78466183 0.0014545122
0.21505988 0.78466147 0.0014545582
0.22520748 0.78466159 0.0014545122
0.23502739 0.78466171 0.0014545122
0.24516693 0.78485155 0.0014365241
0.25532368 0.78466183 0.0014545122
0.26514393 0.78466183 0.0014545122
0.27496392 0.78466183 0.0014545122
0.28478411 0.78466171 0.0014545122
0.29493305 0.78447217 0.0014724545
0.30507803 0.78466183 0.0014545122
0.31489798 0.78466171 0.0014545122
0.3250455 0.78466147 0.0014545582
0.33519283 0.78466159 0.0014545122
0.34501302 0.78466171 0.0014545122
0.35483325 0.78466171 0.0014545122
0.36465314 0.78466183 0.0014545122
0.37480971 0.78485155 0.0014365241
0.38494968 0.78466171 0.0014545122
0.39508575 0.78447223 0.0014724545
0.40524331 0.78466171 0.0014545122
0.4150635 0.78466171 0.0014545122
0.42488354 0.78466159 0.0014545122
0.435031 0.78466147 0.0014545582
0.44517848 0.78466171 0.0014545122
0.45499852 0.78466171 0.0014545122
0.46481881 0.78466171 0.0014545122
0.474639 0.78466183 0.0014545122
0.48480421 0.78447217 0.0014724545
0.49524367 0.78485155 0.0014365241
0.50135249 0.78617823 0.0013109744
-0.50361967 0.79594582 0.00038731843
-0.49463868 0.79536819 0.00044193864
-0.48474589 0.79536808 0.00044193864
-0.47485295 0.79536831 0.00044193864
-0.4649601 0.79536819 0.00044193864
-0.45506725 0.79536813 0.00044193864
-0.44517446 0.79536813 0.00044193864
-0.43528166 0.79536819 0.00044193864
-0.42513689 0.79514837 0.00046271371
-0.41500291 0.79536819 0.00044187307
-0.40487117 0.79544139 0.00043484711
-0.39472204 0.79536831 0.00044177473
-0.38482922 0.79536849 0.00044177473
-0.37493652 0.79536843 0.00044177473
-0.36504346 0.79536837 0.00044177473
-0.35515073 0.79536843 0.00044177473
-0.34525785 0.79536831 0.00044177473
-0.33511293 0.79529482 0.00044875202
-0.32497811 0.79536831 0.00044177473
-0.31508529 0.79536831 0.00044177473
-0.30519238 0.79536837 0.00044177473
-0.29529977 0.79536843 0.00044177473
-0.28515244 0.79514873 0.0004625576
-0.27502087 0.79536831 0.00044177473
-0.2648845 0.79558873 0.0004209422
-0.25473905 0.79536843 0.00044177473
-0.24484611 0.79536837 0.00044177473
-0.23495328 0.79536843 0.00044177473
-0.22506042 0.79536831 0.00044177473
-0.21516764 0.79536831 0.00044177473
-0.20502584 0.79544133 0.00043484711
-0.19488677 0.79536831 0.00044177473
-0.18499389 0.79536831 0.00044177473
-0.17510119 0.79536825 0.00044177473
-0.16496478 0.7952947 0.00044875202
-0.1548212 0.79536831 0.00044177473
-0.14469539 0.79514873 0.0004625576
-0.13454264 0.79536825 0.00044177473
-0.12464969 0.79536831 0.00044177473
-0.11475686 0.79536831 0.00044177473
-0.10486405 0.79536831 0.00044177473
-0.094971247 0.79536837 0.00044177473
-0.085078448 0.79536831 0.00044177473
-0.075185493 0.79536831 0.00044177473
-0.065292642 0.79536837 0.00044177473
-0.055400003 0.79536831 0.00044177473
-0.045507099 0.79536837 0.00044177473
-0.035614103 0.79536843 0.00044177473
-0.025721401 0.79536831 0.00044177473
-0.01582865 0.79536843 0.00044177473
-0.0059357001 0.79536849 0.00044177473
0.0049464162 0.79536849 0.00044177473
0.015828649 0.79536837 0.00044177473
0.025721401 0.79536825 0.00044177473
0.035614099 0.79536831 0.00044177473
0.045507103 0.79536855 0.00044177473
0.055399995 0.79536831 0.00044177473
0.065292642 0.79536825 0.00044177473
0.075185508 0.79536843 0.00044177473
0.085078441 0.79536825 0.00044177473
0.094971247 0.79536843 0.00044177473
0.10486405 0.79536855 0.00044177473
0.11475684 0.79536843 0.00044177473
0.1246497 0.79536837 0.00044177473
0.13454264 0.79536825 0.00044177473
0.14469537 0.79514867 0.0004625576
0.15482119 0.79536837 0.00044177473
0.16496477 0.7952947 0.00044875202
0.17510121 0.79536831 0.00044177473
0.18499391 0.79536843 0.00044177473
0.19488676 0.79536831 0.00044177473
0.20502584 0.79544133 0.00043484711
0.21516764 0.79536843 0.00044177473
0.22506042 0.79536837 0.00044177473
0.23495328 0.79536843 0.00044177473
0.24484608 0.79536843 0.00044177473
0.25473908 0.79536825 0.00044177473
0.26488447 0.79558861 0.0004209422
0.27502087 0.79536843 0.00044177473
0.28515244 0.79514855 0.0004625576
0.29529974 0.79536837 0.00044177473
0.30519238 0.79536825 0.00044177473
0.31508529 0.79536831 0.00044177473
0.32497808 0.79536831 0.00044177473
0.33511296 0.79529464 0.00044875202
0.34525782 0.79536831 0.00044177473
0.35515076 0.79536831 0.00044177473
0.36504349 0.79536849 0.00044177473
0.37493649 0.79536843 0.00044177473
0.38482919 0.79536843 0.00044177473
0.39472207 0.79536837 0.00044177473
0.40487117 0.79544139 0.00043484711
0.415003 0.79536831 0.00044177473
0.42513689 0.79514867 0.0004625576
0.43528166 0.79536831 0.00044177473
0.4451746 0.79536831 0.00044177473
0.45506731 0.79536843 0.00044177473
0.46496016 0.79536831 0.00044177473
0.47485298 0.79536837 0.00044177473
0.48474589 0.79536831 0.00044177473
0.49463874 0.79536831 0.00044177473
0.50265521 0.79613847 0.00036894777
-0.10200533 0.80111462 0.0044832826
-0.095072731 0.80111468 0.0044832826
-0.08516933 0.80111462 0.0044832826
-0.075265862 0.80111462 0.0044832826
-0.065362535 0.80111462 0.0044832826
-0.055459134 0.80111462 0.0044832826
-0.045555599 0.80111468 0.0044832826
-0.035652403 0.80111468 0.0044832826
-0.025748733 0.80111468 0.0044832826
-0.015845399 0.80111462 0.0044832826
-0.0059420001 0.80111468 0.0044832826
0.0049516666 0.8011145 0.0044832826
0.015845401 0.80111462 0.0044832826
0.025748733 0.80111468 0.0044832826
0.035652399 0.80111468 0.0044832826
0.045555595 0.8011145 0.0044832826
0.055459134 0.80111468 0.0044832826
-0.43395284 0.59511244 0.019381326
-0.42519447 0.59495771 0.01939599
-0.41512087 0.59479994 0.019410908
-0.40505248 0.59472102 0.019418374
-0.39498806 0.59479994 0.019410908
-0.38492164 0.59487915 0.019403426
-0.37502524 0.59464163 0.019425886
-0.36495927 0.59479982 0.019410908
-0.35489246 0.59480035 0.019410865
-0.3448258 0.59479994 0.019410908
-0.3349269 0.59488159 0.019403189
-0.32503286 0.59479994 0.019410908
-0.31514093 0.59471798 0.019418672
-0.30524129 0.59479988 0.019410908
-0.29500404 0.59479994 0.019410908
-0.28493741 0.59480023 0.019410865
-0.27487054 0.59479994 0.019410908
-0.2647993 0.59472108 0.019418374
-0.25490457 0.59495771 0.01939599
-0.24501628 0.59464163 0.019425886
-0.23511907 0.59487903 0.019403426
-0.22504896 0.59479994 0.019410908
-0.21498223 0.59480029 0.019410865
-0.20508546 0.59472132 0.019418374
-0.19501992 0.59479994 0.019410908
-0.18495412 0.59464175 0.019425886
-0.17488779 0.59479988 0.019410908
-0.16481762 0.59495777 0.01939599
-0.15492138 0.59487903 0.019403426
-0.14502703 0.59480029 0.019410865
-0.13513456 0.59472108 0.019418374
-0.12524399 0.5946418 0.019425886
-0.11517008 0.59479994 0.019410908
-0.10493274 0.59479994 0.019410908
-0.094695434 0.5948 0.019410908
-0.084615208 0.59495771 0.01939599
-0.074894361 0.59488219 0.019403115
-0.065371148 0.59455431 0.019434152
-0.055452142 0.59479994 0.019410908
-0.045214865 0.5948 0.019410908
-0.034977499 0.59480006 0.019410908
-0.0247402 0.59479988 0.019410908
-0.0145029 0.5948 0.019410908
-0.0051185996 0.5948 0.019410908
0.0042655007 0.59479994 0.019410908
0.014502901 0.59479994 0.019410908
0.0247402 0.5948 0.019410908
0.034977503 0.59480006 0.019410908
0.045214869 0.59480006 0.019410908
0.055452142 0.59479988 0.019410908
0.065371141 0.59455436 0.019434152
0.074894361 0.59488237 0.019403115
0.084615208 0.59495759 0.01939599
0.094695427 0.5948 0.019410908
